1548
17.9332 -12.0221 -8.7361 -2007
17.9229 -12.0154 -8.7411 -2005
17.9117 -12.0079 -8.7453 -1994
17.9089 -12.0159 -8.7421 -1969
17.9042 -12.0231 -8.7376 -1930
17.9002 -12.0204 -8.7453 -1975
17.9062 -12.0344 -8.7426 -1969
17.9769 -11.9901 -8.7551 -1991
17.9829 -12.0044 -8.7543 -1991
17.9922 -12.0206 -8.7561 -1961
17.9804 -12.0129 -8.7603 -1973
17.9854 -12.0264 -8.7596 -1956
17.9472 -11.9399 -8.7386 -2001
17.9482 -11.9609 -8.7413 -1986
17.9239 -11.9549 -8.7391 -1989
17.9354 -11.9729 -8.7411 -1997
17.9139 -11.9684 -8.7378 -1990
18.0164 -11.9146 -8.7596 -2000
18.0117 -11.9219 -8.7556 -1985
17.9769 -11.9194 -8.7536 -1987
17.9909 -11.9286 -8.7506 -1995
17.9784 -11.9304 -8.7506 -1990
17.9647 -11.9211 -8.7538 -1919
18.0112 -11.9621 -8.7613 -1984
17.9839 -11.9541 -8.7501 -1997
17.9977 -11.9736 -8.7533 -2003
17.9852 -11.9754 -8.7521 -1991
18.0737 -12.1056 -8.7783 -2000
18.0887 -12.1159 -8.7758 -1985
18.0752 -12.1174 -8.7753 -2007
18.0654 -12.1209 -8.7688 -2005
18.0667 -12.1321 -8.7668 -2004
18.0444 -12.1271 -8.7706 -2007
18.0567 -12.1354 -8.7666 -2007
18.0779 -12.1496 -8.7671 -1998
18.0659 -12.1521 -8.7696 -1997
18.0492 -12.1409 -8.7716 -2007
18.0329 -12.1299 -8.7736 -1987
18.0277 -12.1366 -8.7688 -1998
18.0474 -12.1499 -8.7686 -1991
18.0397 -12.1551 -8.7711 -1999
18.1092 -12.1091 -8.8001 -1893
18.0982 -12.1121 -8.8021 -1957
18.1457 -12.1231 -8.7806 -1963
18.1247 -12.1091 -8.7806 -1942
18.1142 -12.1124 -8.7926 -1904
18.1132 -12.1116 -8.7821 -1915
18.1144 -12.1126 -8.7728 -1933
18.1352 -12.1266 -8.7731 -1972
18.1262 -12.1309 -8.7753 -1933
18.1074 -12.1184 -8.7763 -1916
18.1002 -12.1134 -8.7828 -1931
18.1014 -12.1144 -8.7936 -1958
18.1074 -12.1284 -8.7748 -1929
18.1399 -12.1501 -8.7806 -1904
18.1209 -12.1481 -8.7776 -1950
18.1029 -12.1361 -8.7788 -1966
18.0937 -12.1399 -8.7728 -1996
18.1339 -12.1669 -8.7823 -1969
18.1174 -12.1661 -8.7813 -1979
18.0762 -12.0464 -8.7838 -1982
18.0782 -12.0576 -8.7843 -1983
18.0614 -12.0466 -8.7863 -1965
18.0399 -12.0426 -8.7723 -1985
18.0734 -12.0749 -8.7858 -1928
18.0447 -12.0659 -8.7786 -1960
18.1307 -12.0416 -8.7798 -1995
18.1197 -12.0444 -8.7758 -2002
18.1067 -12.0461 -8.7768 -2000
18.1274 -12.0599 -8.7768 -2004
18.1314 -12.0729 -8.7833 -1977
18.1054 -12.0554 -8.7808 -1988
18.0944 -12.0481 -8.7853 -1967
18.0909 -12.0561 -8.7811 -1969
18.1127 -12.0706 -8.7818 -1930
18.1424 -12.0904 -8.7863 -1931
18.1282 -12.0911 -8.7786 -1981
18.1099 -12.0789 -8.7796 -1971
18.1082 -12.0776 -8.7888 -1936
18.1072 -12.0874 -8.7951 -1921
18.1127 -12.0911 -8.7878 -1954
18.1144 -12.0921 -8.7786 -1959
18.1219 -12.0971 -8.7723 -1955
18.1109 -12.1001 -8.7838 -1933
18.1109 -12.0999 -8.7938 -1905
18.2134 -12.1069 -8.7808 -1977
18.2022 -12.1096 -8.7831 -1965
18.2137 -12.1276 -8.7828 -1948
18.1972 -12.1166 -8.7848 -1955
18.1739 -12.1114 -8.7816 -1942
18.1984 -12.1276 -8.7833 -1948
18.2159 -12.1394 -8.7818 -1968
18.1994 -12.1386 -8.7828 -1962
18.1787 -12.1246 -8.7828 -1969
18.1577 -12.1109 -8.7828 -1954
18.1609 -12.1231 -8.7813 -1966
18.1844 -12.1389 -8.7826 -1962
18.2052 -12.1529 -8.7828 -1960
18.1919 -12.1541 -8.7828 -1931
18.1742 -12.1421 -8.7843 -1962
18.1757 -12.1536 -8.7826 -1965
18.1609 -12.1541 -8.7821 -1947
18.1644 -12.1666 -8.7826 -1967
18.2762 -12.1074 -8.7821 -1963
18.2632 -12.1091 -8.7828 -1958
18.2742 -12.1264 -8.7836 -1961
18.2502 -12.1106 -8.7821 -1959
18.2397 -12.1139 -8.7823 -1965
18.2647 -12.1304 -8.7843 -1977
18.2599 -12.1376 -8.7831 -1951
18.2397 -12.1241 -8.7836 -1968
18.2219 -12.1229 -8.7828 -1954
18.2424 -12.1364 -8.7826 -1971
18.2632 -12.1501 -8.7826 -1968
18.2547 -12.1549 -8.7826 -1970
18.2372 -12.1431 -8.7841 -1966
18.2389 -12.1549 -8.7831 -1978
18.2204 -12.1526 -8.7828 -1980
18.2232 -12.1649 -8.7816 -1987
18.2092 -12.0421 -8.7928 -1912
18.1997 -12.0461 -8.7871 -1923
18.2079 -12.0516 -8.7811 -1948
18.2147 -12.0664 -8.7828 -1984
18.1934 -12.0524 -8.7826 -1953
18.1827 -12.0454 -8.7876 -1895
18.1762 -12.0409 -8.7943 -1910
18.1647 -12.0439 -8.7853 -1927
18.1789 -12.0534 -8.7821 -1911
18.1997 -12.0671 -8.7823 -1940
18.2107 -12.0844 -8.7833 -1960
18.1864 -12.0681 -8.7816 -1986
18.1669 -12.0554 -8.7823 -1975
18.1577 -12.0594 -8.7828 -1977
18.1809 -12.0749 -8.7841 -1983
18.1987 -12.0866 -8.7826 -1953
18.2159 -12.0981 -8.7811 -1952
18.1952 -12.0946 -8.7823 -1963
18.1757 -12.0819 -8.7828 -1954
18.1547 -12.0679 -8.7828 -1967
18.1577 -12.0801 -8.7816 -1950
18.1779 -12.0934 -8.7813 -1954
18.1727 -12.1004 -8.7831 -1941
18.1539 -12.0879 -8.7841 -1888
18.1562 -12.0996 -8.7828 -1897
18.2747 -12.0444 -8.7958 -1920
18.2589 -12.0444 -8.7951 -1913
18.2634 -12.0474 -8.7871 -1914
18.2764 -12.0559 -8.7833 -1936
18.2614 -12.0564 -8.7831 -1917
18.2502 -12.0489 -8.7878 -1914
18.2429 -12.0441 -8.7943 -1910
18.2232 -12.0416 -8.7943 -1954
18.2319 -12.0474 -8.7886 -1955
18.2419 -12.0539 -8.7833 -1882
18.2557 -12.0631 -8.7801 -1925
18.2734 -12.0846 -8.7833 -1945
18.2494 -12.0689 -8.7821 -1944
18.2312 -12.0569 -8.7833 -1938
18.2187 -12.0484 -8.7873 -1926
18.2294 -12.0659 -8.7813 -1954
18.2517 -12.0806 -8.7821 -1956
18.2714 -12.0936 -8.7816 -1935
18.2584 -12.0956 -8.7836 -1945
18.2359 -12.0806 -8.7828 -1981
18.2174 -12.0789 -8.7808 -1969
18.2424 -12.0954 -8.7828 -1964
18.2307 -12.0976 -8.7828 -1962
18.0757 -11.9849 -8.7818 -1966
18.0612 -11.9851 -8.7811 -1981
18.0719 -12.0129 -8.7828 -1963
18.0844 -12.0314 -8.7856 -1945
18.0787 -12.0376 -8.7878 -1979
18.0317 -12.0166 -8.7721 -1992
18.1532 -11.9849 -8.7913 -1964
18.1469 -12.0011 -8.7931 -1968
18.1069 -11.9849 -8.7821 -1969
18.1137 -11.9996 -8.7843 -1982
18.1139 -11.9999 -8.7946 -1902
18.0982 -11.9999 -8.7828 -1980
18.1107 -12.0079 -8.7788 -2001
18.1487 -12.0334 -8.7876 -1961
18.1279 -12.0294 -8.7736 -1988
18.1082 -12.0164 -8.7741 -1992
18.0984 -12.0099 -8.7793 -1979
18.0909 -12.0049 -8.7856 -1960
18.0929 -12.0164 -8.7913 -1942
18.1069 -12.0256 -8.7881 -1959
18.1159 -12.0316 -8.7826 -1980
18.1012 -12.0321 -8.7771 -2004
18.0954 -12.0284 -8.7843 -1961
18.0959 -12.0389 -8.7813 -1961
18.0799 -11.9264 -8.7683 -1991
18.0577 -11.9321 -8.7641 -1993
18.0404 -11.9306 -8.7613 -2007
18.0634 -11.9561 -8.7711 -1995
18.0547 -11.9606 -8.7756 -1991
18.1517 -11.9229 -8.7773 -2000
18.1432 -11.9274 -8.7701 -1982
18.1129 -11.9176 -8.7641 -2013
18.1077 -11.9141 -8.7716 -1975
18.1032 -11.9216 -8.7751 -2007
18.1072 -11.9241 -8.7671 -2014
18.1169 -11.9306 -8.7618 -2017
18.1232 -11.9446 -8.7631 -1990
18.1157 -11.9396 -8.7693 -1999
18.1004 -11.9296 -8.7718 -2006
18.1064 -11.9439 -8.7713 -1998
18.1179 -11.9514 -8.7668 -2007
18.1507 -11.9731 -8.7728 -2005
18.1212 -11.9639 -8.7858 -1979
18.1224 -11.9751 -8.7856 -1984
18.0917 -11.9646 -8.7763 -1996
18.2064 -12.0304 -8.8063 -1958
18.2167 -12.0374 -8.8013 -1933
18.2019 -12.0374 -8.7996 -1921
18.1922 -12.0311 -8.8048 -1929
18.1629 -12.0219 -8.7993 -1934
18.1839 -12.0359 -8.7993 -1911
18.1767 -11.9799 -8.7788 -1996
18.1857 -12.0064 -8.7971 -1975
18.1582 -11.9986 -8.7931 -1971
18.1912 -12.0406 -8.7928 -1884
18.1614 -12.0314 -8.7973 -1978
18.2777 -11.9851 -8.8058 -2014
18.2707 -11.9906 -8.8076 -2004
18.2774 -12.0054 -8.8181 -2010
18.2412 -11.9816 -8.8108 -2015
18.2457 -11.9949 -8.8098 -2010
18.2774 -12.0156 -8.8151 -1988
18.2287 -11.9936 -8.8001 -1990
18.2617 -12.0259 -8.8118 -1955
18.2782 -12.0369 -8.8098 -1966
18.2684 -12.0404 -8.8031 -1944
18.2577 -12.0334 -8.8078 -1988
18.2437 -12.0344 -8.8076 -1978
18.2489 -12.0379 -8.8001 -1967
18.2352 -12.0391 -8.8008 -1940
18.2244 -12.0319 -8.8056 -1955
18.1859 -11.9146 -8.7728 -2002
18.1727 -11.9161 -8.7753 -2007
18.1712 -11.9254 -8.7796 -2006
18.1702 -11.9554 -8.7818 -2013
18.1654 -11.9626 -8.7753 -2005
18.2297 -11.9331 -8.7863 -2000
18.2529 -11.9586 -8.7953 -2010
18.2184 -11.9461 -8.7873 -2014
18.2267 -11.9619 -8.7963 -2010
17.8184 -11.8544 -8.7738 -1922
17.8122 -11.8504 -8.7511 -1893
17.8142 -11.8616 -8.7573 -1901
17.8224 -11.8671 -8.7713 -1826
17.8274 -11.8704 -8.7836 -1925
17.7824 -11.8506 -8.7976 -1899
17.7827 -11.8509 -8.7878 -1921
17.7887 -11.8549 -8.7811 -1990
17.8232 -11.8779 -8.7881 -1956
17.8362 -11.8864 -8.7848 -1891
17.8304 -11.8826 -8.7721 -1935
17.8357 -11.8861 -8.7648 -1939
17.8347 -11.8954 -8.7741 -1901
17.8324 -11.8939 -8.7828 -1907
17.8279 -11.8909 -8.7906 -1952
17.7924 -11.8671 -8.7828 -1991
17.7849 -11.8621 -8.7888 -1997
17.7814 -11.8599 -8.7968 -1972
17.7869 -11.8736 -8.7961 -1958
17.7914 -11.8766 -8.7883 -1961
17.8152 -11.8926 -8.7903 -1971
17.8104 -11.8994 -8.7661 -1994
17.7997 -11.8921 -8.7706 -1961
17.8032 -11.8944 -8.7821 -1931
17.7957 -11.8894 -8.7881 -1926
17.7979 -11.8909 -8.7991 -1939
17.7834 -11.8914 -8.7983 -1958
17.7949 -11.8989 -8.7941 -1857
17.7822 -11.8904 -8.7781 -1902
17.7844 -11.8921 -8.7693 -1959
17.7962 -11.8999 -8.7653 -2000
17.7764 -11.8969 -8.7633 -1945
17.7787 -11.8986 -8.7743 -1920
17.7754 -11.8961 -8.7823 -1852
17.7754 -11.9061 -8.7901 -1991
17.7742 -11.9054 -8.7796 -1908
17.7769 -11.9071 -8.7711 -1946
17.8939 -11.8541 -8.7368 -1914
17.8914 -11.8524 -8.7453 -1847
17.8949 -11.8549 -8.7568 -1895
17.8867 -11.8596 -8.7586 -1980
17.8914 -11.8626 -8.7513 -1892
17.8942 -11.8646 -8.7428 -1901
17.8944 -11.8746 -8.7391 -1904
17.8929 -11.8736 -8.7483 -1927
17.8907 -11.8721 -8.7571 -1984
17.8737 -11.8609 -8.7586 -1991
17.8454 -11.8521 -8.7886 -1909
17.8569 -11.8596 -8.7551 -1967
17.8864 -11.8794 -8.7596 -1915
17.8827 -11.8769 -8.7478 -1900
17.8842 -11.8779 -8.7388 -1877
17.8762 -11.8826 -8.7371 -1885
17.8767 -11.8829 -8.7471 -1885
17.8869 -11.8899 -8.7621 -1864
17.8662 -11.8759 -8.7616 -1942
17.8374 -11.8671 -8.7536 -1945
17.8604 -11.8824 -8.7551 -1972
17.8684 -11.8876 -8.7493 -1973
17.8629 -11.8841 -8.7366 -1929
17.8539 -11.8881 -8.7376 -1907
17.8517 -11.8864 -8.7463 -1972
17.8472 -11.8836 -8.7541 -1951
17.8377 -11.8771 -8.7591 -1967
17.8414 -11.8901 -8.7578 -1917
17.8437 -11.8914 -8.7491 -1942
17.8459 -11.8931 -8.7406 -1942
17.8379 -11.8976 -8.7366 -1870
17.8499 -11.9056 -8.7523 -1887
17.8512 -11.9064 -8.7726 -1913
17.8364 -11.9066 -8.7908 -1931
17.8397 -11.9089 -8.7728 -1978
17.7947 -11.8389 -8.8113 -1851
17.7869 -11.8434 -8.8026 -1861
17.7939 -11.8481 -8.8158 -1870
17.7809 -11.8496 -8.8066 -1904
17.8239 -11.7876 -8.7538 -1908
17.8147 -11.7916 -8.7578 -1894
17.8214 -11.8061 -8.7696 -1971
17.7937 -11.7876 -8.7658 -1894
17.7942 -11.7881 -8.7856 -1868
17.7809 -11.7896 -8.7851 -1933
17.7982 -11.8009 -8.7838 -1902
17.8089 -11.8081 -8.7793 -1982
17.8289 -11.8214 -8.7793 -2000
17.8307 -11.8324 -8.7571 -2009
17.8217 -11.8264 -8.7623 -1966
17.8329 -11.8339 -8.7776 -1943
17.8199 -11.8251 -8.7808 -1973
17.7972 -11.8101 -8.7796 -1938
17.7864 -11.8029 -8.7838 -1969
17.7784 -11.8076 -8.7848 -1938
17.7899 -11.8151 -8.7808 -1890
17.8239 -11.8379 -8.7878 -1935
17.8114 -11.8296 -8.7621 -1874
17.8142 -11.8314 -8.7538 -1913
17.8359 -11.8459 -8.7546 -2002
17.8182 -11.8441 -8.7478 -1974
17.8117 -11.8399 -8.7543 -1928
17.8114 -11.8396 -8.7641 -1934
17.8182 -11.8441 -8.7773 -1897
17.8094 -11.8384 -8.7826 -1931
17.7889 -11.8246 -8.7823 -1905
17.7774 -11.8171 -8.7863 -1893
17.7874 -11.8339 -8.7978 -1854
17.7837 -11.8314 -8.7863 -1925
17.7904 -11.8359 -8.7796 -1946
17.8012 -11.8431 -8.7751 -1954
17.8092 -11.8481 -8.7593 -1905
17.7964 -11.8496 -8.7778 -1943
17.7857 -11.8426 -8.7826 -1969
17.7804 -11.8391 -8.7896 -1907
17.8994 -11.7874 -8.7548 -1951
17.8914 -11.7921 -8.7588 -1984
17.8694 -11.7876 -8.7546 -1995
17.8849 -11.7979 -8.7523 -1977
17.8964 -11.8054 -8.7481 -1972
17.8997 -11.8176 -8.7371 -1986
17.8702 -11.7981 -8.7521 -1995
17.8487 -11.7941 -8.7508 -1990
17.8834 -11.8171 -8.7581 -1967
17.8927 -11.8231 -8.7431 -1958
17.8992 -11.8276 -8.7363 -1992
17.8889 -11.8304 -8.7368 -1987
17.8972 -11.8359 -8.7506 -1905
17.8734 -11.8201 -8.7586 -1982
17.8424 -11.7996 -8.7531 -1959
17.8499 -11.8149 -8.7653 -1939
17.8849 -11.8381 -8.7728 -1956
17.8864 -11.8389 -8.7636 -1942
17.8947 -11.8444 -8.7578 -1925
17.8934 -11.8436 -8.7473 -1897
17.8902 -11.8416 -8.7361 -1973
17.8859 -11.8489 -8.7623 -1978
17.8659 -11.8356 -8.7623 -2017
17.8484 -11.8239 -8.7633 -1986
17.8587 -11.8306 -8.7783 -1912
17.8437 -11.8311 -8.7768 -1953
17.8419 -11.8299 -8.7661 -1979
17.8497 -11.8351 -8.7601 -2009
17.8609 -11.8424 -8.7558 -2002
17.8454 -11.8421 -8.7543 -1994
17.9597 -11.8774 -8.7418 -2001
17.9624 -11.8996 -8.7506 -1949
17.9367 -11.8926 -8.7438 -1970
17.9192 -11.8909 -8.7416 -1947
18.0057 -11.8574 -8.7573 -1973
18.0212 -11.8774 -8.7533 -1941
18.0062 -11.8676 -8.7558 -1970
18.0014 -11.8746 -8.7598 -1973
18.0117 -11.8814 -8.7551 -1990
18.0224 -11.8884 -8.7503 -1967
18.0117 -11.8914 -8.7523 -1962
18.0017 -11.8851 -8.7573 -1993
17.9912 -11.8881 -8.7516 -1989
18.0209 -11.9081 -8.7563 -1989
17.9904 -11.9079 -8.7553 -1970
17.9834 -11.9134 -8.7508 -1986
17.9242 -11.7934 -8.7416 -1944
17.9082 -11.7931 -8.7493 -1988
17.9324 -11.8091 -8.7513 -1959
17.9367 -11.8119 -8.7436 -1974
17.9462 -11.8281 -8.7366 -1967
17.9287 -11.8164 -8.7378 -1972
17.9177 -11.8094 -8.7423 -1972
17.9107 -11.8046 -8.7486 -1974
17.9004 -11.7979 -8.7533 -1978
17.9044 -11.8106 -8.7423 -1984
17.9137 -11.8169 -8.7368 -1981
17.9469 -11.8386 -8.7433 -1965
17.9434 -11.8466 -8.7388 -1988
17.9172 -11.8291 -8.7358 -1981
17.9004 -11.8181 -8.7473 -1960
17.9007 -11.8184 -8.7571 -1924
17.9087 -11.8339 -8.7606 -1879
17.9002 -11.8381 -8.7618 -1917
18.0022 -11.7944 -8.7528 -1993
17.9869 -11.7946 -8.7446 -1997
17.9857 -11.8239 -8.7531 -1974
17.9812 -11.8309 -8.7496 -1968
17.8339 -11.7241 -8.7378 -1980
17.8249 -11.7281 -8.7418 -1973
17.8112 -11.7294 -8.7508 -1974
17.8234 -11.7374 -8.7471 -1957
17.8297 -11.7514 -8.7481 -1966
17.8167 -11.7426 -8.7513 -1932
17.8047 -11.7349 -8.7553 -1944
17.7934 -11.7274 -8.7593 -1967
17.7874 -11.7234 -8.7758 -1931
17.7824 -11.7304 -8.7801 -1955
17.7877 -11.7336 -8.7728 -1933
17.7904 -11.7356 -8.7646 -1965
17.8004 -11.7421 -8.7598 -1944
17.8089 -11.7479 -8.7543 -1934
17.8224 -11.7566 -8.7511 -1955
17.8317 -11.7729 -8.7528 -1963
17.8227 -11.7669 -8.7581 -1948
17.8104 -11.7589 -8.7618 -1936
17.7992 -11.7514 -8.7661 -1945
17.7884 -11.7441 -8.7703 -1965
17.7924 -11.7469 -8.7823 -1913
17.7864 -11.7429 -8.7891 -1955
17.7899 -11.7554 -8.7903 -1826
17.7884 -11.7544 -8.7798 -1945
17.7974 -11.7604 -8.7746 -1971
17.8024 -11.7636 -8.7673 -1959
17.8127 -11.7704 -8.7626 -1931
17.8229 -11.7771 -8.7578 -1945
17.8319 -11.7831 -8.7523 -1922
17.8114 -11.7791 -8.7573 -1884
17.8032 -11.7736 -8.7628 -1936
17.7944 -11.7681 -8.7683 -1896
17.7867 -11.7629 -8.7743 -1959
17.7847 -11.7616 -8.7831 -1909
17.7864 -11.7626 -8.7936 -1892
17.7829 -11.7706 -8.7911 -1946
17.7842 -11.7714 -8.7818 -1875
17.7874 -11.7736 -8.7738 -1908
17.7904 -11.7756 -8.7656 -1952
17.7992 -11.7814 -8.7601 -1902
17.7899 -11.7854 -8.7736 -1882
17.7779 -11.7774 -8.7871 -1963
17.8884 -11.7299 -8.7556 -1892
17.8804 -11.7246 -8.7613 -1934
17.8734 -11.7301 -8.7628 -1955
17.8844 -11.7374 -8.7583 -1930
17.8912 -11.7416 -8.7518 -1860
17.8889 -11.7401 -8.7408 -1888
17.8797 -11.7444 -8.7436 -1886
17.8584 -11.7304 -8.7428 -1948
17.8632 -11.7436 -8.7426 -1942
17.8774 -11.7529 -8.7396 -1923
17.8882 -11.7699 -8.7436 -1934
17.8807 -11.7649 -8.7496 -1966
17.8449 -11.7411 -8.7418 -1957
17.8449 -11.7516 -8.7478 -1959
17.8872 -11.7794 -8.7588 -1964
17.8689 -11.7771 -8.7576 -1981
17.8447 -11.7711 -8.7521 -1968
17.8439 -11.7809 -8.7491 -1979
17.8342 -11.6644 -8.7456 -1943
17.8297 -11.6714 -8.7398 -1964
17.8277 -11.6701 -8.7486 -1956
17.8244 -11.6679 -8.7568 -1922
17.8229 -11.6769 -8.7636 -1961
17.8234 -11.6774 -8.7541 -1939
17.8254 -11.6786 -8.7451 -1948
17.8224 -11.6866 -8.7523 -1949
17.8152 -11.6819 -8.7586 -1958
17.8107 -11.6791 -8.7663 -1947
17.8119 -11.6896 -8.7718 -1975
17.8129 -11.6904 -8.7626 -1960
17.8157 -11.6921 -8.7541 -1929
17.8287 -11.7109 -8.7381 -1967
17.8179 -11.7036 -8.7426 -1975
17.8164 -11.7029 -8.7516 -1965
17.8139 -11.7011 -8.7601 -1936
17.8227 -11.7069 -8.7741 -1896
17.8157 -11.7021 -8.7803 -1920
17.8039 -11.6946 -8.7846 -1978
17.8017 -11.7031 -8.7906 -1970
17.8122 -11.7099 -8.7858 -1905
17.8149 -11.7116 -8.7773 -1895
17.8009 -11.7024 -8.7608 -1954
17.8032 -11.7039 -8.7521 -1981
17.8134 -11.7106 -8.7473 -1995
17.8232 -11.7171 -8.7423 -1984
17.8159 -11.7224 -8.7471 -1992
17.8052 -11.7151 -8.7516 -1996
17.7989 -11.7111 -8.7581 -1961
17.7977 -11.7104 -8.7673 -1958
17.8082 -11.7171 -8.7821 -1912
17.8079 -11.7171 -8.7918 -1898
17.8012 -11.7126 -8.7981 -1934
17.7744 -11.7051 -8.7913 -1944
17.7994 -11.7216 -8.7938 -1945
17.7912 -11.7164 -8.7801 -1926
17.7882 -11.7144 -8.7688 -1923
17.7897 -11.7154 -8.7598 -1973
17.8002 -11.7221 -8.7551 -1992
17.7842 -11.7214 -8.7646 -1952
17.7802 -11.7186 -8.7821 -1980
17.8447 -11.6614 -8.7408 -1952
17.8387 -11.6674 -8.7381 -1962
17.8537 -11.6971 -8.7491 -1973
17.8809 -11.7149 -8.7528 -1993
17.8527 -11.7066 -8.7576 -1960
17.8409 -11.7086 -8.7566 -1959
17.9589 -11.7359 -8.7478 -1992
17.9269 -11.7251 -8.7418 -2004
17.9549 -11.7434 -8.7458 -1990
17.9569 -11.7546 -8.7433 -1992
17.9412 -11.7444 -8.7453 -2009
17.9107 -11.7244 -8.7403 -2004
17.9122 -11.7254 -8.7508 -1961
17.9209 -11.7411 -8.7623 -1884
17.9209 -11.7411 -8.7526 -1904
17.9239 -11.7431 -8.7443 -2010
17.9302 -11.7471 -8.7376 -2005
17.9009 -11.7381 -8.7421 -1967
17.9077 -11.7426 -8.7551 -1885
17.9024 -11.7791 -8.7406 -1973
17.9982 -11.7316 -8.7386 -1971
17.9947 -11.7391 -8.7513 -2005
17.9727 -11.7246 -8.7506 -1995
17.9719 -11.7344 -8.7578 -1963
17.9874 -11.7446 -8.7556 -2002
18.0159 -11.7731 -8.7558 -1977
17.9914 -11.7574 -8.7538 -1973
17.9699 -11.7531 -8.7433 -1999
18.0097 -11.7789 -8.7526 -1990
17.9932 -11.7784 -8.7511 -1989
17.9169 -11.7086 -8.7371 -1996
18.0012 -11.6831 -8.7538 -2003
18.0009 -11.6934 -8.7493 -2004
17.9817 -11.6906 -8.7368 -1994
18.0082 -11.7179 -8.7381 -1979
17.9719 -11.7046 -8.7381 -1985
17.9657 -11.7104 -8.7423 -1989
17.9792 -11.7191 -8.7391 -1982
18.0759 -11.8629 -8.7728 -1990
18.0887 -11.8814 -8.7766 -1992
18.0682 -11.8681 -8.7766 -1968
18.0692 -11.8789 -8.7838 -1946
18.0857 -11.8896 -8.7821 -1923
18.0889 -11.9019 -8.7823 -1976
18.0789 -11.8951 -8.7873 -1968
18.0369 -11.8779 -8.7626 -1979
18.0854 -11.9099 -8.7763 -1989
18.0602 -11.9031 -8.7623 -1984
18.0399 -11.9101 -8.7563 -1982
18.1242 -11.8641 -8.7651 -1989
18.0924 -11.8534 -8.7771 -1978
18.1097 -11.8649 -8.7756 -1982
18.1087 -11.8641 -8.7651 -1981
18.1244 -11.8744 -8.7631 -1995
18.1097 -11.8749 -8.7646 -1987
18.0992 -11.8681 -8.7696 -1947
18.0987 -11.8679 -8.7791 -1922
18.0992 -11.8781 -8.7743 -1976
18.1059 -11.8826 -8.7678 -1990
18.1434 -11.9071 -8.7761 -1999
18.1217 -11.9031 -8.7728 -1929
18.1162 -11.8996 -8.7801 -1925
18.0969 -11.8971 -8.7776 -1966
18.1114 -11.9066 -8.7748 -1948
18.1164 -11.9099 -8.7671 -1932
18.1042 -11.9119 -8.7798 -1987
18.0829 -11.7869 -8.7698 -1958
18.0704 -11.7886 -8.7686 -1986
18.0829 -11.8069 -8.7726 -2001
18.0832 -11.8171 -8.7686 -1999
18.0619 -11.8034 -8.7683 -2000
18.0649 -11.8151 -8.7698 -1989
18.0829 -11.8269 -8.7686 -1992
18.0887 -11.8309 -8.7616 -1985
18.0824 -11.8369 -8.7648 -1989
18.0757 -11.8324 -8.7713 -1987
18.0432 -11.8111 -8.7656 -1991
18.0519 -11.8269 -8.7673 -1983
18.0569 -11.8404 -8.7688 -1986
18.0352 -11.8361 -8.7631 -1988
18.1144 -11.7869 -8.7698 -1921
18.1154 -11.7876 -8.7606 -1943
18.1302 -11.7971 -8.7578 -1978
18.1164 -11.7986 -8.7588 -1931
18.1084 -11.7934 -8.7651 -1913
18.1082 -11.8031 -8.7721 -1938
18.1142 -11.8071 -8.7651 -1949
18.1499 -11.8304 -8.7726 -1968
18.1504 -11.8406 -8.7776 -2000
18.1157 -11.8181 -8.7706 -1984
18.0994 -11.8074 -8.7726 -1983
18.0914 -11.8124 -8.7668 -2009
18.1034 -11.8204 -8.7628 -2011
18.1472 -11.8489 -8.7741 -2015
18.1087 -11.8339 -8.7613 -2002
18.0944 -11.8246 -8.7643 -2000
18.1007 -11.8384 -8.7576 -1988
18.0952 -11.8451 -8.7611 -1988
18.2134 -11.8619 -8.7758 -1910
18.2117 -11.8606 -8.7851 -1929
18.2012 -11.8639 -8.7876 -1891
18.2087 -11.8686 -8.7813 -1899
18.2114 -11.8704 -8.7728 -1968
18.2094 -11.8791 -8.7761 -1945
18.2059 -11.8769 -8.7843 -1890
18.1974 -11.8714 -8.7903 -1960
18.1954 -11.8804 -8.7876 -1970
18.2012 -11.8841 -8.7803 -1959
18.2129 -11.8916 -8.7761 -1968
18.2062 -11.8976 -8.7786 -1963
18.1977 -11.8919 -8.7846 -1913
18.1879 -11.8856 -8.7898 -1942
18.1839 -11.8929 -8.7878 -1948
18.1967 -11.9014 -8.7841 -1963
18.1877 -11.8956 -8.7701 -1988
18.1752 -11.8974 -8.7701 -1994
18.1594 -11.8871 -8.7723 -1990
18.1589 -11.8971 -8.7698 -1997
18.1577 -11.9064 -8.7781 -1995
18.2547 -11.8579 -8.7931 -2015
18.2402 -11.8589 -8.7826 -2011
18.2177 -11.8541 -8.7803 -1979
18.2324 -11.8639 -8.7776 -2009
18.2494 -11.8851 -8.7833 -1968
18.1979 -11.7906 -8.7821 -2014
18.1634 -11.7884 -8.7633 -1991
18.1782 -11.8084 -8.7661 -2009
18.1659 -11.8104 -8.7668 -2000
18.2074 -11.8476 -8.7853 -1989
18.1754 -11.8369 -8.7776 -1983
18.2619 -11.7916 -8.8078 -1989
18.2519 -11.8154 -8.8043 -2008
18.2552 -11.8279 -8.7998 -2008
18.2257 -11.7884 -8.7941 -1992
18.2199 -11.8456 -8.7828 -2005
18.0772 -11.7324 -8.7711 -1996
18.0512 -11.7259 -8.7638 -1997
18.0342 -11.7249 -8.7526 -2002
18.0874 -11.7799 -8.7648 -1921
18.0567 -11.7796 -8.7716 -1975
18.0334 -11.7746 -8.7683 -2000
18.0502 -11.7856 -8.7666 -1996
18.1519 -11.7409 -8.7686 -1986
18.1219 -11.7314 -8.7616 -1992
18.1334 -11.7491 -8.7608 -1999
18.1149 -11.7369 -8.7618 -1996
18.0979 -11.7259 -8.7636 -2001
18.0964 -11.7349 -8.7703 -1994
18.1057 -11.7409 -8.7648 -1996
18.1234 -11.7524 -8.7636 -1991
18.1522 -11.7711 -8.7676 -1982
18.1302 -11.7669 -8.7571 -1993
18.1187 -11.7594 -8.7616 -1996
18.1102 -11.7539 -8.7673 -2002
18.0982 -11.7461 -8.7713 -1996
18.0937 -11.7534 -8.7746 -2000
18.1062 -11.7616 -8.7706 -2003
18.1132 -11.7661 -8.7641 -1996
18.1217 -11.7716 -8.7586 -1978
18.1364 -11.7811 -8.7558 -1986
18.1282 -11.7859 -8.7583 -1963
18.1207 -11.7811 -8.7648 -1938
18.1147 -11.7771 -8.7718 -1999
18.0922 -11.7626 -8.7708 -2004
18.1029 -11.7796 -8.7741 -1944
18.0869 -11.6989 -8.7568 -1986
18.0874 -11.7089 -8.7646 -1996
18.0862 -11.7184 -8.7676 -1992
18.0407 -11.6889 -8.7553 -1981
18.0374 -11.6966 -8.7613 -1972
18.0772 -11.7224 -8.7708 -1987
18.0439 -11.7109 -8.7648 -1995
18.1399 -11.6926 -8.7516 -1997
18.1112 -11.6844 -8.7453 -1990
18.1249 -11.7031 -8.7518 -2000
18.1062 -11.6911 -8.7526 -2001
18.1017 -11.6981 -8.7576 -1988
18.1312 -11.7171 -8.7618 -2000
18.1117 -11.7149 -8.7588 -1991
18.1082 -11.7224 -8.7646 -2001
18.2007 -11.7421 -8.7786 -2007
18.1777 -11.7471 -8.7743 -1994
18.1779 -11.7676 -8.7786 -2006
18.1727 -11.7844 -8.7676 -1996
18.2659 -11.7739 -8.8023 -2013
18.2759 -11.7601 -8.7951 -1996
17.8267 -11.6594 -8.7518 -1931
17.8917 -11.6521 -8.7381 -1986
17.8622 -11.6529 -8.7358 -1883
17.8519 -11.6561 -8.7386 -1886
17.8397 -11.6581 -8.7481 -1907
17.9062 -11.6516 -8.7378 -1997
18.3244 -12.1084 -8.7831 -1957
18.3427 -12.1306 -8.7863 -1942
18.3204 -12.1156 -8.7858 -1935
18.2957 -12.1099 -8.7833 -1935
18.3169 -12.1239 -8.7836 -1950
18.3429 -12.1411 -8.7861 -1929
18.3259 -12.1401 -8.7856 -1940
18.3014 -12.1239 -8.7841 -1955
18.2849 -12.1234 -8.7831 -1942
18.3074 -12.1384 -8.7838 -1956
18.3289 -12.1526 -8.7843 -1956
18.3199 -12.1569 -8.7851 -1946
18.2949 -12.1404 -8.7833 -1941
18.2847 -12.1436 -8.7838 -1931
18.3059 -12.1579 -8.7841 -1949
18.2829 -12.1529 -8.7841 -1913
18.2864 -12.1656 -8.7836 -1941
18.3932 -12.1124 -8.7848 -1967
18.4004 -12.1271 -8.7851 -1925
18.3777 -12.1124 -8.7846 -1946
18.3589 -12.1104 -8.7831 -1947
18.3832 -12.1264 -8.7846 -1938
18.4032 -12.1396 -8.7841 -1884
18.4062 -12.1416 -8.7656 -1970
18.4054 -12.1514 -8.7611 -1979
18.3992 -12.1474 -8.7683 -1920
18.4012 -12.1486 -8.7793 -1890
18.3939 -12.1439 -8.7858 -1885
18.3727 -12.1299 -8.7858 -1945
18.3492 -12.1141 -8.7846 -1972
18.3499 -12.1251 -8.7851 -1957
18.3707 -12.1389 -8.7851 -1913
18.3912 -12.1526 -8.7848 -1868
18.3947 -12.1549 -8.7766 -1881
18.3924 -12.1531 -8.7656 -1955
18.4064 -12.1626 -8.7623 -2000
18.3939 -12.1644 -8.7706 -1977
18.3907 -12.1621 -8.7791 -1905
18.3849 -12.1584 -8.7863 -1888
18.3609 -12.1426 -8.7851 -1921
18.3617 -12.1534 -8.7851 -1929
18.3482 -12.1549 -8.7863 -1961
18.3514 -12.1676 -8.7848 -1964
18.3364 -12.0441 -8.8061 -1947
18.3199 -12.0436 -8.8056 -1929
18.3014 -12.0416 -8.8048 -1914
18.2852 -12.0414 -8.8031 -1905
18.3419 -12.0479 -8.7986 -1936
18.3264 -12.0479 -8.7986 -1911
18.3339 -12.0529 -8.7921 -1905
18.3419 -12.0581 -8.7861 -1896
18.3384 -12.0659 -8.7821 -1920
18.3244 -12.0566 -8.7853 -1916
18.3157 -12.0511 -8.7913 -1914
18.3087 -12.0464 -8.7981 -1907
18.2922 -12.0459 -8.7963 -1892
18.3004 -12.0514 -8.7903 -1926
18.3077 -12.0564 -8.7841 -1890
18.3222 -12.0656 -8.7808 -1952
18.3324 -12.0824 -8.7831 -1942
18.3104 -12.0681 -8.7826 -1929
18.2922 -12.0559 -8.7841 -1887
18.2822 -12.0494 -8.7893 -1927
18.2952 -12.0684 -8.7823 -1935
18.3149 -12.0814 -8.7818 -1951
18.3389 -12.0971 -8.7833 -1948
18.3262 -12.0991 -8.7838 -1958
18.3034 -12.0841 -8.7831 -1962
18.2809 -12.0694 -8.7823 -1947
18.2817 -12.0804 -8.7826 -1961
18.3032 -12.0944 -8.7828 -1931
18.2934 -12.0979 -8.7831 -1939
18.4057 -12.0484 -8.8103 -1955
18.3977 -12.0431 -8.8168 -1935
18.3802 -12.0421 -8.8166 -1938
18.3859 -12.0456 -8.8093 -1947
18.3929 -12.0501 -8.8026 -1953
18.3762 -12.0496 -8.8028 -1941
18.3704 -12.0459 -8.8103 -1925
18.3474 -12.0409 -8.8146 -1935
18.3547 -12.0456 -8.8081 -1937
18.3587 -12.0484 -8.8001 -1930
18.4007 -12.0554 -8.7961 -1957
18.4067 -12.0594 -8.7891 -1930
18.4009 -12.0659 -8.7843 -1934
18.3907 -12.0591 -8.7896 -1932
18.3839 -12.0549 -8.7963 -1944
18.3662 -12.0531 -8.7936 -1937
18.3749 -12.0591 -8.7876 -1939
18.3859 -12.0661 -8.7828 -1930
18.4037 -12.0779 -8.7813 -1965
18.3982 -12.0846 -8.7848 -1969
18.3704 -12.0666 -8.7818 -1945
18.3584 -12.0586 -8.7861 -1904
18.3497 -12.0529 -8.7921 -1894
18.3534 -12.0656 -8.7816 -1917
18.3759 -12.0804 -8.7823 -1949
18.3994 -12.0959 -8.7836 -1951
18.3837 -12.0956 -8.7833 -1951
18.3627 -12.0819 -8.7836 -1939
18.3462 -12.0816 -8.7823 -1947
18.3684 -12.0961 -8.7828 -1949
18.3532 -12.0961 -8.7828 -1945
18.4689 -12.1104 -8.7661 -1960
18.4609 -12.1051 -8.7723 -1903
18.4529 -12.1101 -8.7748 -1948
18.4624 -12.1164 -8.7693 -1948
18.4689 -12.1311 -8.7681 -1945
18.4567 -12.1231 -8.7723 -1943
18.4492 -12.1181 -8.7788 -1934
18.4359 -12.1094 -8.7826 -1919
18.4202 -12.1094 -8.7833 -1917
18.4364 -12.1201 -8.7813 -1921
18.4462 -12.1266 -8.7758 -1938
18.4569 -12.1336 -8.7708 -1945
18.4677 -12.1406 -8.7661 -1948
18.4607 -12.1461 -8.7696 -1949
18.4514 -12.1404 -8.7753 -1935
18.4432 -12.1346 -8.7813 -1924
18.4257 -12.1231 -8.7831 -1901
18.4114 -12.1139 -8.7866 -1934
18.4142 -12.1264 -8.7848 -1917
18.4289 -12.1361 -8.7818 -1906
18.4434 -12.1454 -8.7788 -1907
18.4527 -12.1516 -8.7731 -1919
18.4617 -12.1574 -8.7676 -1938
18.4489 -12.1591 -8.7681 -1972
18.4267 -12.1446 -8.7673 -1984
18.4204 -12.1404 -8.7746 -1974
18.4194 -12.1399 -8.7841 -1851
18.4084 -12.1431 -8.7766 -1917
18.4194 -12.1504 -8.7618 -2000
18.5314 -12.1099 -8.7626 -1992
18.5279 -12.1179 -8.7631 -2019
18.5187 -12.1221 -8.7631 -2016
18.4797 -12.1071 -8.7638 -1963
18.4919 -12.1151 -8.7596 -1978
18.5227 -12.1351 -8.7641 -2014
18.4984 -12.1296 -8.7598 -2013
18.4842 -12.1204 -8.7631 -1973
18.4747 -12.1244 -8.7653 -1964
18.4884 -12.1334 -8.7618 -1967
18.5087 -12.1466 -8.7613 -2010
18.4944 -12.1479 -8.7601 -1995
18.4807 -12.1389 -8.7636 -1942
18.4822 -12.1504 -8.7631 -1943
18.4962 -12.1594 -8.7596 -2012
18.4879 -12.1641 -8.7623 -1972
18.4742 -12.1551 -8.7658 -1965
18.4639 -12.0451 -8.8178 -1961
18.4574 -12.0409 -8.8248 -1963
18.4517 -12.0476 -8.8211 -1931
18.4542 -12.0491 -8.8121 -1917
18.4612 -12.0536 -8.8053 -1927
18.4689 -12.0589 -8.7991 -1971
18.4472 -12.0549 -8.8036 -1913
18.4402 -12.0504 -8.8103 -1914
18.4332 -12.0456 -8.8171 -1936
18.4272 -12.0419 -8.8243 -1967
18.4147 -12.0439 -8.8193 -1954
18.4192 -12.0469 -8.8116 -1938
18.4287 -12.0531 -8.8061 -1923
18.4112 -12.0521 -8.8031 -1956
18.4682 -12.0686 -8.7833 -1943
18.4609 -12.0639 -8.7898 -1947
18.4534 -12.0591 -8.7963 -1952
18.4339 -12.0564 -8.7986 -1892
18.4427 -12.0621 -8.7926 -1886
18.4489 -12.0661 -8.7856 -1905
18.4594 -12.0731 -8.7806 -1917
18.4674 -12.0784 -8.7743 -1920
18.4649 -12.0871 -8.7678 -1911
18.4574 -12.0821 -8.7743 -1910
18.4452 -12.0741 -8.7786 -1958
18.4382 -12.0696 -8.7856 -1948
18.4264 -12.0619 -8.7898 -1913
18.4197 -12.0574 -8.7968 -1947
18.4169 -12.0659 -8.7838 -1947
18.4322 -12.0759 -8.7811 -1965
18.4484 -12.0866 -8.7788 -1952
18.4567 -12.0919 -8.7728 -1930
18.4652 -12.0976 -8.7668 -1944
18.4514 -12.0991 -8.7781 -1917
18.4409 -12.0921 -8.7831 -1946
18.4192 -12.0779 -8.7828 -1965
18.4277 -12.0936 -8.7828 -1963
18.4427 -12.1034 -8.7801 -1943
18.4164 -12.0966 -8.7836 -1927
18.5339 -12.0496 -8.8226 -1926
18.5239 -12.0431 -8.8278 -1934
18.5077 -12.0429 -8.8301 -1946
18.5157 -12.0481 -8.8241 -1913
18.5227 -12.0526 -8.8173 -1899
18.5292 -12.0569 -8.8103 -1857
18.5222 -12.0626 -8.8026 -1926
18.5142 -12.0576 -8.8088 -1852
18.5062 -12.0524 -8.8151 -1879
18.4982 -12.0471 -8.8216 -1924
18.4897 -12.0416 -8.8276 -1920
18.4727 -12.0406 -8.8283 -1922
18.4787 -12.0446 -8.8213 -1944
18.4864 -12.0496 -8.8151 -1949
18.4952 -12.0554 -8.8091 -1908
18.5022 -12.0599 -8.8023 -1925
18.4797 -12.0554 -8.8051 -1910
18.4722 -12.0506 -8.8116 -1927
18.5329 -12.0696 -8.7976 -1923
18.5107 -12.0656 -8.7963 -1937
18.5177 -12.0699 -8.7896 -1931
18.5297 -12.0779 -8.7853 -1960
18.5144 -12.0781 -8.7811 -1956
18.5047 -12.0719 -8.7866 -1948
18.4972 -12.0669 -8.7931 -1932
18.4857 -12.0594 -8.7978 -1932
18.4757 -12.0634 -8.7923 -1960
18.4849 -12.0694 -8.7868 -1919
18.4932 -12.0746 -8.7806 -1940
18.4989 -12.0784 -8.7733 -1981
18.5084 -12.0846 -8.7678 -1970
18.5307 -12.0991 -8.7683 -1985
18.5092 -12.0954 -8.7623 -1993
18.4952 -12.0861 -8.7656 -1924
18.4862 -12.0804 -8.7716 -1902
18.4787 -12.0754 -8.7781 -1923
18.4734 -12.0824 -8.7673 -1905
18.4862 -12.0906 -8.7633 -1941
18.4939 -12.0956 -8.7571 -2000
18.4899 -12.1034 -8.7596 -1975
18.4784 -12.0959 -8.7641 -1961
18.3322 -11.9899 -8.8198 -1979
18.3197 -11.9921 -8.8196 -1950
18.3384 -12.0146 -8.8263 -1982
18.3324 -12.0211 -8.8223 -2000
18.3247 -12.0261 -8.8236 -1953
18.3394 -12.0356 -8.8206 -1938
18.3289 -12.0394 -8.8126 -1953
18.3239 -12.0359 -8.8203 -1938
18.3127 -12.0286 -8.8251 -1964
18.3057 -12.0344 -8.8188 -1961
18.3129 -12.0391 -8.8121 -1941
18.2954 -12.0376 -8.8121 -1925
18.2857 -12.0311 -8.8176 -1975
18.4047 -11.9864 -8.8276 -1987
18.3799 -11.9804 -8.8341 -1963
18.3897 -11.9866 -8.8288 -1984
18.3872 -11.9951 -8.8316 -1990
18.3724 -11.9856 -8.8346 -1974
18.3677 -11.9926 -8.8308 -1985
18.3959 -12.0111 -8.8343 -1980
18.3684 -12.0034 -8.8266 -1971
18.3499 -11.9916 -8.8278 -1982
18.3582 -12.0069 -8.8221 -1950
18.3869 -12.0256 -8.8261 -1955
18.4054 -12.0379 -8.8248 -1947
18.3922 -12.0396 -8.8243 -1958
18.3734 -12.0274 -8.8253 -1961
18.3467 -12.0096 -8.8226 -1961
18.3537 -12.0246 -8.8238 -1983
18.3754 -12.0389 -8.8243 -1977
18.3609 -12.0396 -8.8158 -1945
18.3522 -12.0339 -8.8216 -1952
18.3132 -11.9161 -8.8066 -1972
18.3359 -11.9416 -8.8148 -1976
18.3164 -11.9389 -8.8133 -1964
18.3174 -11.9496 -8.8181 -1948
18.3347 -11.9714 -8.8248 -1999
18.3129 -11.9674 -8.8201 -1997
18.2939 -11.9649 -8.8113 -1995
18.3757 -11.9161 -8.8458 -1871
18.3814 -11.9196 -8.8386 -1896
18.3984 -11.9409 -8.8466 -1990
18.3744 -11.9254 -8.8451 -1927
18.3624 -11.9281 -8.8253 -1977
18.4022 -11.9536 -8.8343 -1992
18.4049 -11.9659 -8.8316 -1961
18.3647 -11.9396 -8.8226 -1986
18.3484 -11.9391 -8.8136 -1964
18.4004 -11.9731 -8.8286 -1988
18.3894 -11.9764 -8.8303 -2002
18.4687 -11.9864 -8.8398 -1971
18.4584 -12.0004 -8.8371 -1957
18.4157 -11.9831 -8.8261 -1953
18.4602 -12.0119 -8.8376 -1951
18.4417 -12.0104 -8.8351 -1964
18.4137 -12.0024 -8.8303 -1989
18.4422 -12.0209 -8.8338 -1980
18.4669 -12.0369 -8.8358 -1935
18.4482 -12.0349 -8.8306 -1954
18.4214 -12.0174 -8.8278 -1987
18.4129 -12.0119 -8.8338 -1981
18.4079 -12.0191 -8.8301 -1965
18.4309 -12.0341 -8.8311 -1956
18.4409 -12.0406 -8.8258 -1935
18.4187 -12.0364 -8.8303 -1948
18.4087 -12.0299 -8.8358 -1964
18.5339 -11.9879 -8.8213 -1972
18.5239 -11.9814 -8.8266 -1949
18.5124 -11.9839 -8.8403 -1966
18.5244 -11.9919 -8.8361 -1947
18.5304 -12.0061 -8.8208 -1949
18.5342 -12.0086 -8.8328 -1902
18.5304 -12.0061 -8.8411 -1948
18.5144 -11.9959 -8.8436 -1955
18.4909 -11.9804 -8.8423 -1933
18.4772 -11.9816 -8.8248 -1999
18.4937 -11.9924 -8.8228 -1984
18.5107 -12.0034 -8.8208 -1934
18.5179 -12.0081 -8.8143 -1929
18.5259 -12.0134 -8.8081 -1909
18.5262 -12.0236 -8.8066 -1976
18.5132 -12.0154 -8.8106 -1943
18.5084 -12.0124 -8.8183 -1899
18.4924 -12.0019 -8.8208 -1931
18.4824 -11.9954 -8.8261 -1958
18.4812 -11.9946 -8.8356 -1965
18.4724 -11.9994 -8.8383 -1994
18.4912 -12.0116 -8.8373 -2008
18.5097 -12.0234 -8.8361 -1945
18.5074 -12.0221 -8.8251 -1911
18.5142 -12.0266 -8.8183 -1946
18.5254 -12.0339 -8.8136 -1976
18.5134 -12.0364 -8.8331 -1893
18.5129 -12.0361 -8.8428 -1915
18.4889 -12.0204 -8.8416 -1977
18.4912 -12.0321 -8.8423 -1965
18.5014 -12.0389 -8.8373 -1952
18.4824 -12.0369 -8.8343 -1932
18.4777 -12.0339 -8.8421 -1927
18.4569 -11.9174 -8.8313 -1977
18.4422 -11.9181 -8.8223 -1964
18.4552 -11.9369 -8.8241 -1963
18.4299 -11.9206 -8.8221 -1986
18.4259 -11.9179 -8.8303 -2000
18.4099 -11.9176 -8.8311 -1976
18.4207 -11.9246 -8.8261 -1981
18.4324 -11.9324 -8.8221 -1985
18.4592 -11.9496 -8.8248 -1960
18.4552 -11.9574 -8.8353 -1967
18.4334 -11.9434 -8.8351 -1929
18.4272 -11.9394 -8.8423 -1930
18.4132 -11.9404 -8.8438 -1924
18.4219 -11.9461 -8.8381 -1871
18.4264 -11.9489 -8.8303 -1956
18.4504 -11.9644 -8.8321 -1985
18.4699 -11.9771 -8.8313 -2000
18.4207 -11.9554 -8.8268 -1957
18.4164 -11.9526 -8.8348 -1914
18.4119 -11.9496 -8.8428 -1973
18.4104 -11.9591 -8.8286 -1991
18.4364 -11.9761 -8.8311 -1995
18.4144 -11.9721 -8.8261 -1976
18.5282 -11.9226 -8.8253 -1985
18.5032 -11.9166 -8.8231 -1942
18.5009 -11.9254 -8.8246 -1955
18.4924 -11.9199 -8.8306 -1927
18.4827 -11.9136 -8.8361 -1945
18.4887 -11.9279 -8.8373 -1930
18.5032 -11.9371 -8.8343 -1929
18.5187 -11.9471 -8.8318 -1961
18.5242 -11.9506 -8.8246 -1965
18.5214 -11.9589 -8.8216 -1957
18.5184 -11.9571 -8.8303 -1966
18.5084 -11.9506 -8.8356 -1952
18.4969 -11.9431 -8.8403 -1962
18.4902 -11.9491 -8.8353 -1965
18.5079 -11.9604 -8.8338 -1954
18.5154 -11.9654 -8.8276 -1965
18.5197 -11.9681 -8.8196 -1960
18.5337 -11.9771 -8.8163 -1974
18.5169 -11.9769 -8.8333 -1964
18.5027 -11.9676 -8.8366 -1973
18.5939 -12.1096 -8.7458 -2015
18.5962 -12.1109 -8.7668 -1999
18.5912 -12.1076 -8.7746 -1984
18.5919 -12.1081 -8.7851 -2018
18.5734 -12.1064 -8.7761 -1996
18.5782 -12.1094 -8.7683 -1979
18.5804 -12.1109 -8.7593 -1982
18.5787 -12.1099 -8.7486 -2017
18.5809 -12.1111 -8.7396 -2023
18.5549 -12.1044 -8.7398 -2015
18.5554 -12.1049 -8.7703 -1987
18.5384 -12.1041 -8.7621 -1978
18.5389 -12.1044 -8.7523 -1990
18.5767 -12.1291 -8.7601 -1991
18.5934 -12.1506 -8.7518 -2001
18.5827 -12.1434 -8.7568 -1984
18.5762 -12.1391 -8.7636 -1976
18.5617 -12.1299 -8.7668 -1996
18.5577 -12.1374 -8.7671 -2008
18.5617 -12.1399 -8.7588 -1991
18.5634 -12.1409 -8.7498 -1987
18.5654 -12.1424 -8.7408 -1982
18.5937 -12.1609 -8.7441 -1995
18.5542 -12.1456 -8.7398 -1991
18.5497 -12.1426 -8.7476 -1972
18.5479 -12.1414 -8.7568 -1995
18.5417 -12.1374 -8.7638 -2011
18.5452 -12.1499 -8.7648 -1975
18.5524 -12.1546 -8.7583 -1967
18.5459 -12.1504 -8.7453 -1961
18.5517 -12.1541 -8.7381 -1985
18.5559 -12.1674 -8.7371 -1986
18.5449 -12.1601 -8.7418 -1982
18.5482 -12.1624 -8.7533 -1967
18.5479 -12.1621 -8.7633 -1977
18.5347 -12.1536 -8.7671 -2000
18.5397 -12.1669 -8.7661 -2006
18.6589 -12.1099 -8.7381 -1964
18.6614 -12.1114 -8.7493 -1960
18.6417 -12.1091 -8.7581 -2002
18.6514 -12.1156 -8.7526 -1971
18.6579 -12.1199 -8.7458 -1958
18.6607 -12.1216 -8.7371 -1960
18.6602 -12.1316 -8.7411 -1954
18.6559 -12.1289 -8.7493 -1963
18.6507 -12.1254 -8.7568 -1980
18.6349 -12.1151 -8.7593 -2013
18.6294 -12.1116 -8.7668 -2024
18.6067 -12.1071 -8.7668 -2014
18.6204 -12.1161 -8.7631 -2023
18.6344 -12.1251 -8.7598 -2015
18.6432 -12.1309 -8.7538 -1992
18.6519 -12.1366 -8.7478 -1971
18.6574 -12.1509 -8.7358 -1958
18.6582 -12.1514 -8.7461 -1954
18.6514 -12.1469 -8.7528 -1980
18.6272 -12.1311 -8.7516 -2014
18.6067 -12.1176 -8.7618 -2018
18.6319 -12.1446 -8.7536 -1995
18.6519 -12.1574 -8.7528 -1970
18.6582 -12.1616 -8.7458 -1955
18.6472 -12.1646 -8.7533 -1985
18.6309 -12.1539 -8.7556 -2006
18.5997 -12.1336 -8.7508 -2008
18.6004 -12.1446 -8.7613 -1962
18.6004 -12.1446 -8.7513 -1998
18.6342 -12.1666 -8.7573 -2009
18.5864 -12.0524 -8.8168 -1987
18.5972 -12.0594 -8.8121 -1960
18.5982 -12.0704 -8.8003 -1945
18.5912 -12.0659 -8.8071 -1957
18.5829 -12.0606 -8.8133 -1954
18.5597 -12.0559 -8.8098 -1958
18.5739 -12.0651 -8.8066 -1962
18.5594 -12.0661 -8.8043 -1927
18.5502 -12.0601 -8.8101 -1927
18.5419 -12.0549 -8.8163 -1944
18.5397 -12.0636 -8.8053 -1925
18.5769 -12.0671 -8.7981 -1954
18.5877 -12.0741 -8.7931 -1951
18.5939 -12.0784 -8.7861 -1948
18.5969 -12.0906 -8.7718 -1980
18.5964 -12.0901 -8.7816 -1969
18.5797 -12.0794 -8.7838 -1965
18.5789 -12.0789 -8.7933 -1977
18.5667 -12.0709 -8.7976 -1958
18.5462 -12.0679 -8.7983 -1934
18.5532 -12.0724 -8.7918 -1946
18.5632 -12.0789 -8.7863 -1973
18.5727 -12.0851 -8.7808 -1965
18.5939 -12.0989 -8.7808 -2004
18.5964 -12.1004 -8.7718 -1974
18.5562 -12.0849 -8.7781 -1989
18.5502 -12.0809 -8.7853 -1925
18.5457 -12.0781 -8.7933 -1916
18.5487 -12.0904 -8.7843 -2001
18.5607 -12.0981 -8.7801 -2019
18.5459 -12.0984 -8.7456 -1990
18.5479 -12.0999 -8.7566 -1982
18.5527 -12.1031 -8.7791 -1997
18.5369 -12.0926 -8.7816 -1973
18.6374 -12.0546 -8.7998 -1932
18.6004 -12.0409 -8.8023 -1952
18.6157 -12.0614 -8.8008 -1949
18.6069 -12.0556 -8.8068 -1938
18.6004 -12.0514 -8.8138 -1982
18.6044 -12.0641 -8.8053 -1941
18.6137 -12.0701 -8.7998 -1944
18.6537 -12.0444 -8.7533 -1979
18.6362 -12.0434 -8.7951 -1932
18.6482 -12.0511 -8.7606 -2009
18.6552 -12.0556 -8.7538 -1984
18.6612 -12.0699 -8.7503 -1975
18.6487 -12.0619 -8.7546 -2008
18.6344 -12.0529 -8.7581 -2021
18.6219 -12.0446 -8.7621 -2025
18.6242 -12.0461 -8.7833 -1945
18.6139 -12.0496 -8.7986 -1954
18.6359 -12.0639 -8.7991 -1929
18.6252 -12.0569 -8.7838 -1951
18.6074 -12.0454 -8.7653 -2015
18.6247 -12.0566 -8.7636 -2024
18.6394 -12.0661 -8.7603 -2015
18.6517 -12.0739 -8.7561 -2004
18.6587 -12.0786 -8.7493 -1969
18.6594 -12.0896 -8.7508 -1961
18.6504 -12.0839 -8.7568 -1988
18.6362 -12.0744 -8.7601 -2017
18.6212 -12.0649 -8.7631 -2024
18.6024 -12.0526 -8.7643 -2012
18.6197 -12.0639 -8.7826 -1956
18.6332 -12.0726 -8.7991 -1907
18.6224 -12.0759 -8.7938 -1932
18.6099 -12.0679 -8.7778 -1963
18.6019 -12.0626 -8.7641 -2008
18.6152 -12.0711 -8.7603 -2024
18.6359 -12.0846 -8.7598 -2015
18.6492 -12.0931 -8.7561 -1987
18.6589 -12.0994 -8.7506 -1971
18.6492 -12.1036 -8.7536 -1982
18.6392 -12.0969 -8.7591 -2004
18.6169 -12.0826 -8.7588 -2022
18.6077 -12.0766 -8.7643 -2017
18.5984 -12.0706 -8.7701 -1963
18.6034 -12.0739 -8.7826 -1963
18.6034 -12.0739 -8.7926 -1955
18.5999 -12.0821 -8.7786 -1959
18.5984 -12.0811 -8.7678 -1976
18.6012 -12.0829 -8.7593 -2023
18.6262 -12.0991 -8.7608 -2021
18.6029 -12.0944 -8.7646 -2018
18.6632 -12.1439 -8.7433 -1959
18.6684 -12.0436 -8.7428 -1956
18.6669 -12.0529 -8.7393 -1960
18.6632 -12.0504 -8.7476 -1958
18.6619 -12.0599 -8.7468 -1961
18.6644 -12.0616 -8.7381 -1960
18.6622 -12.0706 -8.7408 -1957
18.6624 -12.0809 -8.7411 -1959
18.6632 -12.0921 -8.7426 -1956
18.6639 -12.1029 -8.7431 -1962
18.5904 -11.9829 -8.8066 -1931
18.5849 -11.9796 -8.8141 -1964
18.5837 -11.9786 -8.8236 -1908
18.5737 -11.9826 -8.8183 -1944
18.5824 -11.9884 -8.8126 -1978
18.5887 -11.9924 -8.8056 -1947
18.5909 -12.0039 -8.8043 -1969
18.5854 -12.0004 -8.8116 -1959
18.5754 -11.9939 -8.8171 -1979
18.5609 -11.9846 -8.8203 -1974
18.5679 -11.9994 -8.8228 -1950
18.5754 -12.0041 -8.8163 -1933
18.5842 -12.0099 -8.8106 -1950
18.5944 -12.0164 -8.8053 -1954
18.5892 -12.0234 -8.8071 -1969
18.5847 -12.0206 -8.8151 -1976
18.5607 -12.0051 -8.8138 -1961
18.5497 -11.9981 -8.8186 -1966
18.5409 -12.0024 -8.8341 -1954
18.5434 -12.0041 -8.8253 -1974
18.5427 -12.0036 -8.8148 -1981
18.5514 -12.0091 -8.8091 -1963
18.5784 -12.0266 -8.8118 -1982
18.5954 -12.0379 -8.8098 -1974
18.5792 -12.0376 -8.8138 -1985
18.5447 -12.0154 -8.8073 -1965
18.5382 -12.0111 -8.8143 -1970
18.5537 -12.0314 -8.8113 -1994
18.5477 -12.0376 -8.8066 -1990
18.5354 -12.0404 -8.8083 -1986
18.5957 -11.9864 -8.7988 -1911
18.5934 -11.9954 -8.7978 -1956
18.5977 -12.0084 -8.7973 -1897
18.6397 -11.9836 -8.8008 -1939
18.6437 -11.9966 -8.7993 -1917
18.6214 -11.9929 -8.7998 -1929
18.6464 -12.0089 -8.8016 -1922
18.6152 -12.0404 -8.7993 -1933
18.6009 -12.0311 -8.8028 -1961
18.6522 -11.9814 -8.7573 -1994
18.6494 -11.9901 -8.7953 -1950
18.6387 -11.9831 -8.7606 -2019
18.6537 -11.9926 -8.7576 -2002
18.6567 -12.0051 -8.7553 -1981
18.6472 -11.9989 -8.7608 -2015
18.6299 -11.9879 -8.7628 -2023
18.6209 -11.9821 -8.7786 -1976
18.6204 -11.9816 -8.7986 -1952
18.5984 -11.9779 -8.7988 -1906
18.6254 -11.9954 -8.7816 -1959
18.6059 -11.9829 -8.7626 -2013
18.6302 -11.9984 -8.7638 -2021
18.6419 -12.0059 -8.7593 -2019
18.6539 -12.0139 -8.7551 -1994
18.6524 -12.0229 -8.7553 -1986
18.6449 -12.0181 -8.7618 -2013
18.6299 -12.0084 -8.7648 -2025
18.6077 -11.9941 -8.7643 -1997
18.6212 -12.0026 -8.7808 -1937
18.6354 -12.0119 -8.7976 -1905
18.6139 -11.9981 -8.7976 -1924
18.6002 -11.9996 -8.7911 -1873
18.6217 -12.0136 -8.7911 -1881
18.6207 -12.0129 -8.7806 -1943
18.6109 -12.0066 -8.7661 -2012
18.6232 -12.0144 -8.7618 -2025
18.6439 -12.0279 -8.7616 -2016
18.6549 -12.0351 -8.7568 -1989
18.6602 -12.0384 -8.7491 -1961
18.6462 -12.0396 -8.7598 -1997
18.6267 -12.0269 -8.7606 -2023
18.6199 -12.0226 -8.7676 -2023
18.6069 -12.0141 -8.7716 -1979
18.6287 -12.0281 -8.7918 -1942
18.6167 -12.0204 -8.7963 -1862
18.6017 -12.0211 -8.7988 -1980
18.6117 -12.0274 -8.7933 -1959
18.6097 -12.0261 -8.7723 -1983
18.6129 -12.0284 -8.7641 -2023
18.6259 -12.0366 -8.7601 -2024
18.6104 -12.0371 -8.7668 -2014
18.5982 -11.9161 -8.8206 -1833
18.5974 -11.9259 -8.8198 -1841
18.5869 -11.9191 -8.8251 -1947
18.5792 -11.9141 -8.8313 -1940
18.5729 -11.9206 -8.8336 -1900
18.5752 -11.9219 -8.8246 -1942
18.5787 -11.9241 -8.8163 -1957
18.5939 -11.9341 -8.8138 -1877
18.5972 -11.9361 -8.8053 -1850
18.5974 -11.9464 -8.8018 -1837
18.5954 -11.9451 -8.8108 -1807
18.5889 -11.9409 -8.8178 -1912
18.5802 -11.9354 -8.8238 -1963
18.5722 -11.9304 -8.8301 -1949
18.5629 -11.9244 -8.8356 -1944
18.5649 -11.9359 -8.8348 -1945
18.5897 -11.9516 -8.8366 -1924
18.5979 -11.9569 -8.8306 -1934
18.5957 -11.9556 -8.8098 -1821
18.5974 -11.9566 -8.8008 -1907
18.5924 -11.9639 -8.8256 -1958
18.5829 -11.9576 -8.8311 -1919
18.5587 -11.9421 -8.8296 -1972
18.5414 -11.9414 -8.8313 -1983
18.5492 -11.9464 -8.8251 -1948
18.5627 -11.9551 -8.8216 -1921
18.5887 -11.9719 -8.8241 -1932
18.5962 -11.9766 -8.8176 -1906
18.5914 -11.9734 -8.8053 -1892
18.5549 -11.9601 -8.8198 -1958
18.5474 -11.9551 -8.8263 -1942
18.5374 -11.9489 -8.8318 -1952
18.5437 -11.9631 -8.8238 -1990
18.5642 -11.9764 -8.8238 -1953
18.5372 -11.9694 -8.8191 -1980
18.6434 -11.9141 -8.8021 -1912
18.6564 -11.9434 -8.8013 -1894
18.5997 -11.9171 -8.8313 -1897
18.6004 -11.9176 -8.8118 -1840
18.6014 -11.9181 -8.8023 -1875
18.6007 -11.9279 -8.8013 -1926
18.5984 -11.9264 -8.8103 -1830
18.5994 -11.9579 -8.8216 -1882
18.6057 -11.9724 -8.8116 -1894
18.6067 -11.9729 -8.8221 -1912
18.6589 -11.9239 -8.7591 -1994
18.6444 -11.9146 -8.7623 -2020
18.6527 -11.9199 -8.7963 -1890
18.6384 -11.9211 -8.7978 -1950
18.6429 -11.9241 -8.7901 -1937
18.6399 -11.9221 -8.7688 -2025
18.6469 -11.9266 -8.7621 -2020
18.6592 -11.9344 -8.7578 -1988
18.6614 -11.9464 -8.7536 -1986
18.6492 -11.9386 -8.7578 -2003
18.6422 -11.9341 -8.7646 -2023
18.6262 -11.9239 -8.7671 -2025
18.6192 -11.9194 -8.7736 -1982
18.6274 -11.9246 -8.7976 -1955
18.6077 -11.9221 -8.7953 -1931
18.6292 -11.9361 -8.7956 -1919
18.6477 -11.9479 -8.7943 -1925
18.6152 -11.9269 -8.7691 -2006
18.6294 -11.9361 -8.7658 -2027
18.6397 -11.9426 -8.7608 -2023
18.6517 -11.9504 -8.7566 -2017
18.6602 -11.9661 -8.7591 -2001
18.6464 -11.9571 -8.7626 -2021
18.6312 -11.9474 -8.7656 -2028
18.6149 -11.9369 -8.7678 -2013
18.6402 -11.9531 -8.7898 -1931
18.6314 -11.9476 -8.7958 -1889
18.6122 -11.9354 -8.7966 -1919
18.6004 -11.9381 -8.7968 -1913
18.6109 -11.9449 -8.7918 -1936
18.6364 -11.9611 -8.7941 -1926
18.6244 -11.9534 -8.7786 -1983
18.6124 -11.9459 -8.7631 -2022
18.6334 -11.9591 -8.7628 -2025
18.6404 -11.9636 -8.7563 -2020
18.6587 -11.9754 -8.7551 -1989
18.6389 -11.9731 -8.7611 -2019
18.6257 -11.9646 -8.7651 -2026
18.6134 -11.9566 -8.7691 -2013
18.6399 -11.9736 -8.7918 -1972
18.6244 -11.9639 -8.7946 -1956
18.6044 -11.9509 -8.7951 -1957
18.6037 -11.9606 -8.7938 -1967
18.6082 -11.9636 -8.7661 -2009
18.6144 -11.9676 -8.7591 -2026
18.6119 -11.9764 -8.7646 -2021
18.5992 -11.9681 -8.7986 -1936
18.6639 -11.9789 -8.7476 -1969
18.6712 -11.9836 -8.7408 -1957
18.6704 -11.9931 -8.7358 -1948
18.6694 -11.9926 -8.7453 -1953
18.6627 -11.9881 -8.7521 -1970
18.6649 -12.0001 -8.7528 -1973
18.6652 -12.0001 -8.7428 -1959
18.6677 -12.0121 -8.7403 -1955
18.6644 -12.0101 -8.7491 -1961
18.6647 -12.0206 -8.7501 -1969
18.6644 -12.0204 -8.7398 -1956
18.6657 -12.0314 -8.7413 -1954
18.6637 -12.0301 -8.7506 -1960
18.6764 -11.9144 -8.7401 -1951
18.6682 -11.9196 -8.7561 -1984
18.6717 -11.9221 -8.7478 -1960
18.6754 -11.9244 -8.7396 -1957
18.6759 -11.9349 -8.7471 -1957
18.6652 -11.9279 -8.7521 -1970
18.6672 -11.9394 -8.7516 -1971
18.6722 -11.9426 -8.7441 -1956
18.6719 -11.9531 -8.7383 -1955
18.6712 -11.9526 -8.7481 -1966
18.6679 -11.9606 -8.7541 -1987
18.6697 -11.9619 -8.7451 -1965
18.6722 -11.9634 -8.7361 -1948
18.6729 -11.9744 -8.7451 -1959
18.6627 -11.9676 -8.7503 -1967
18.3389 -11.8619 -8.8288 -1980
18.3074 -11.8514 -8.8213 -1983
18.3274 -11.8644 -8.8211 -1963
18.3349 -11.8796 -8.8181 -1962
18.3232 -11.8719 -8.8226 -1961
18.3327 -11.8981 -8.8348 -1963
18.3327 -11.9086 -8.8208 -1983
18.3174 -11.9089 -8.8098 -1988
18.3692 -11.8509 -8.8298 -1945
18.4052 -11.8741 -8.8371 -2001
18.4064 -11.8849 -8.8473 -1979
18.3674 -11.8596 -8.8388 -2006
18.3494 -11.8581 -8.8373 -1987
18.3802 -11.8779 -8.8423 -1995
18.4069 -11.8954 -8.8451 -1946
18.4069 -11.8954 -8.8353 -1969
18.3959 -11.8986 -8.8361 -1889
18.3674 -11.8801 -8.8323 -1985
18.3479 -11.8776 -8.8211 -1974
18.3877 -11.9031 -8.8301 -1951
18.3872 -11.9134 -8.8331 -1965
18.3509 -11.8999 -8.8436 -1944
18.3417 -11.8331 -8.8363 -1972
18.3057 -11.8299 -8.8263 -1998
18.3197 -11.8494 -8.8296 -1974
18.3919 -11.8044 -8.8271 -1998
18.3732 -11.8024 -8.8256 -1988
18.3619 -11.8054 -8.8273 -1997
18.3959 -11.8374 -8.8328 -2000
18.3657 -11.8179 -8.8283 -1992
18.3552 -11.8214 -8.8318 -1977
18.3657 -11.8281 -8.8268 -1995
18.3952 -11.8471 -8.8311 -2003
18.3692 -11.8404 -8.8221 -1993
18.3572 -11.8329 -8.8263 -1996
18.3494 -11.8276 -8.8326 -1962
18.3572 -11.8429 -8.8338 -1987
18.3472 -11.8466 -8.8391 -1974
18.4622 -11.8596 -8.8278 -1964
18.4622 -11.8596 -8.8381 -1886
18.4657 -11.8619 -8.8498 -1963
18.4597 -11.8681 -8.8543 -1962
18.4659 -11.8721 -8.8473 -1903
18.4544 -11.8649 -8.8318 -1920
18.4587 -11.8676 -8.8238 -1974
18.4712 -11.8856 -8.8283 -1992
18.4524 -11.8736 -8.8296 -1979
18.4604 -11.8789 -8.8433 -1918
18.4652 -11.8819 -8.8558 -1943
18.4492 -11.8819 -8.8468 -1983
18.4552 -11.8859 -8.8398 -1976
18.4619 -11.8901 -8.8331 -2007
18.4557 -11.8961 -8.8333 -1995
18.4444 -11.8891 -8.8381 -1998
18.4179 -11.8719 -8.8353 -2003
18.4327 -11.8919 -8.8403 -2004
18.4447 -11.8994 -8.8361 -1967
18.4652 -11.9126 -8.8361 -1962
18.4367 -11.9044 -8.8318 -1982
18.4312 -11.9009 -8.8391 -2005
18.4229 -11.8954 -8.8453 -1996
18.4289 -11.9094 -8.8358 -2002
18.4352 -11.9136 -8.8288 -1977
18.4117 -11.9089 -8.8336 -1985
18.5277 -11.8504 -8.8348 -1955
18.5307 -11.8629 -8.8221 -1974
18.4962 -11.8509 -8.8221 -1921
18.5072 -11.8579 -8.8173 -1949
18.5067 -11.8679 -8.8173 -1947
18.4967 -11.8614 -8.8226 -1940
18.4919 -11.8584 -8.8303 -1934
18.4912 -11.8576 -8.8401 -1893
18.4859 -11.8544 -8.8478 -1924
18.4717 -11.8556 -8.8451 -1922
18.4764 -11.8586 -8.8373 -1966
18.4904 -11.8676 -8.8341 -1940
18.5014 -11.8746 -8.8293 -1948
18.5117 -11.8814 -8.8243 -1952
18.5187 -11.8959 -8.8348 -1995
18.4857 -11.8746 -8.8291 -1993
18.4789 -11.8806 -8.8236 -1984
18.5047 -11.8971 -8.8261 -1981
18.5292 -11.9129 -8.8278 -1976
18.5017 -11.9054 -8.8228 -1918
18.4972 -11.9026 -8.8308 -1919
18.4892 -11.9079 -8.8363 -1947
18.4947 -11.9111 -8.8288 -1880
18.4712 -11.8246 -8.8241 -1904
18.4692 -11.8436 -8.8498 -1959
18.4534 -11.8439 -8.8466 -1993
18.4242 -11.8351 -8.8401 -2001
18.4082 -11.8351 -8.8396 -2001
18.5249 -11.8384 -8.8371 -1921
18.4764 -11.8176 -8.8303 -1850
