1599
18.8907 -6.6893 -8.7847 -1946
18.9010 -6.6931 -8.7792 -1955
18.8990 -6.7016 -8.7647 -1941
18.8915 -6.6988 -8.7717 -1945
18.8780 -6.6941 -8.7757 -1954
18.8632 -6.6888 -8.7794 -1933
18.8527 -6.6851 -8.7849 -1905
18.8520 -6.6941 -8.7702 -1954
18.8675 -6.6996 -8.7669 -1947
18.8757 -6.7026 -8.7604 -1930
18.8895 -6.7076 -8.7564 -1955
18.9082 -6.7141 -8.7547 -2007
18.8890 -6.7166 -8.7539 -1948
18.8762 -6.7121 -8.7584 -1909
18.8625 -6.7073 -8.7624 -1945
18.8555 -6.7048 -8.7697 -1930
18.8535 -6.7133 -8.7647 -1941
18.8690 -6.7188 -8.7612 -1942
18.8790 -6.7223 -8.7554 -1949
18.8945 -6.7278 -8.7522 -1988
18.8595 -6.7246 -8.7629 -1944
18.8510 -6.7216 -8.7694 -1948
18.8337 -6.6046 -8.8269 -1995
18.8270 -6.6023 -8.8342 -1961
18.8165 -6.6078 -8.8279 -1949
18.8232 -6.6101 -8.8207 -1958
18.8260 -6.6203 -8.8269 -1981
18.8035 -6.6123 -8.8267 -1954
18.7835 -6.6053 -8.8277 -1970
18.7857 -6.6153 -8.8259 -1978
18.8065 -6.6228 -8.8252 -1975
18.8370 -6.6333 -8.8289 -2013
18.8057 -6.6316 -8.8212 -1960
18.7977 -6.6288 -8.8279 -1816
18.7850 -6.6243 -8.8324 -1983
18.8027 -6.6398 -8.8474 -1891
18.8067 -6.6411 -8.8389 -1816
18.8027 -6.6396 -8.8264 -1795
18.8270 -6.6483 -8.8274 -1968
18.8465 -6.6646 -8.8234 -1944
18.8332 -6.6598 -8.8279 -1995
18.8102 -6.6518 -8.8274 -1928
18.8072 -6.6508 -8.8364 -1867
18.7965 -6.6468 -8.8419 -1937
18.7872 -6.6528 -8.8307 -1925
18.8025 -6.6583 -8.8274 -1945
18.8150 -6.6626 -8.8227 -1933
18.7897 -6.6628 -8.8182 -1944
18.8970 -6.6081 -8.8249 -1976
18.8807 -6.6026 -8.8279 -1995
18.8505 -6.6011 -8.8482 -1931
18.8687 -6.6076 -8.8359 -1977
18.8822 -6.6121 -8.8317 -1981
18.8917 -6.6156 -8.8257 -1980
18.9105 -6.6316 -8.8314 -1989
18.8900 -6.6243 -8.8322 -1989
18.8822 -6.6216 -8.8392 -1994
18.8865 -6.6323 -8.8399 -1974
18.8952 -6.6356 -8.8337 -1979
18.9002 -6.6463 -8.8199 -1979
18.8965 -6.6451 -8.8284 -1986
18.8937 -6.6441 -8.8377 -1984
18.8797 -6.6391 -8.8414 -1981
18.8850 -6.6503 -8.8409 -1976
18.8840 -6.6501 -8.8299 -1981
18.8952 -6.6538 -8.8247 -1978
18.9070 -6.6581 -8.8092 -1954
18.8932 -6.6623 -8.8307 -1952
18.8827 -6.6588 -8.8364 -1942
18.8642 -6.6523 -8.8382 -1976
18.8592 -6.6598 -8.8322 -1943
18.8700 -6.6633 -8.8267 -1957
18.9332 -6.6673 -8.8109 -1991
18.9610 -6.6771 -8.8134 -1958
18.9722 -6.6903 -8.7944 -1953
18.9597 -6.6858 -8.7992 -1949
18.9492 -6.6821 -8.8047 -1948
18.9380 -6.6783 -8.8099 -1939
18.9272 -6.6743 -8.8154 -1954
18.9167 -6.6706 -8.8209 -1953
18.9125 -6.6786 -8.8047 -1950
18.9232 -6.6823 -8.7992 -1960
18.9365 -6.6868 -8.7947 -1944
18.9452 -6.6901 -8.7884 -1940
18.9115 -6.6876 -8.7912 -1954
18.9577 -6.6943 -8.7837 -1942
18.9695 -6.6986 -8.7787 -1953
18.9635 -6.7058 -8.7737 -1957
18.9532 -6.7023 -8.7792 -1922
18.9422 -6.6983 -8.7847 -1946
18.9205 -6.6908 -8.7849 -1954
18.9140 -6.6976 -8.7747 -1941
18.9355 -6.7053 -8.7742 -1969
18.9510 -6.7108 -8.7709 -1997
18.9535 -6.7208 -8.7272 -1992
18.9510 -6.7201 -8.7364 -2008
18.9600 -6.7231 -8.7512 -1996
18.9697 -6.7266 -8.7662 -1993
18.9452 -6.7181 -8.7654 -2017
18.9122 -6.7063 -8.7604 -1952
18.9357 -6.7238 -8.7569 -1970
18.9385 -6.7248 -8.7477 -1960
18.9440 -6.7268 -8.7399 -1994
18.9125 -6.7251 -8.7544 -2011
19.0230 -6.6711 -8.7899 -1958
19.0110 -6.6668 -8.7949 -1956
18.9985 -6.6716 -8.8292 -1917
18.9990 -6.6718 -8.8189 -1951
19.0090 -6.6753 -8.8129 -1945
19.0182 -6.6786 -8.8067 -1944
19.0165 -6.6781 -8.7954 -1952
19.0312 -6.6831 -8.7919 -1950
19.0325 -6.6928 -8.7979 -1889
19.0215 -6.6891 -8.8034 -1894
19.0105 -6.6851 -8.8087 -1905
19.0005 -6.6816 -8.8144 -1924
18.9877 -6.6771 -8.8189 -1924
18.9775 -6.6736 -8.8247 -1934
18.9752 -6.6821 -8.8094 -1937
18.9867 -6.6861 -8.8044 -1911
18.9975 -6.6898 -8.7989 -1915
19.0090 -6.6941 -8.7937 -1903
19.0175 -6.6968 -8.7872 -1931
18.9822 -6.6938 -8.7887 -1944
19.0345 -6.6751 -8.7534 -1990
19.0160 -6.6686 -8.7554 -2001
19.0070 -6.6653 -8.7617 -1977
19.0332 -6.6746 -8.7842 -1931
19.0065 -6.6743 -8.7594 -1994
19.0190 -6.6788 -8.7549 -2015
19.0332 -6.6838 -8.7509 -1998
19.0307 -6.6923 -8.7552 -2019
19.0090 -6.6846 -8.7557 -2017
19.0137 -6.6863 -8.7684 -1956
19.0200 -6.6978 -8.7779 -1940
18.9992 -6.6903 -8.7579 -1990
19.0180 -6.6971 -8.7562 -2020
19.0367 -6.7036 -8.7542 -2017
19.0372 -6.7131 -8.7509 -2009
19.0227 -6.7081 -8.7549 -2020
18.9985 -6.6996 -8.7542 -2002
18.9992 -6.6998 -8.7652 -1956
19.0030 -6.7011 -8.7774 -1934
18.9937 -6.6978 -8.7834 -1915
18.9817 -6.7028 -8.7737 -1937
18.9965 -6.7081 -8.7702 -1940
18.9975 -6.7086 -8.7602 -1963
19.0042 -6.7108 -8.7529 -2013
19.0255 -6.7183 -8.7522 -2016
19.0120 -6.7231 -8.7542 -2011
18.9990 -6.7183 -8.7587 -1989
18.9972 -6.7178 -8.7682 -1947
18.9812 -6.7121 -8.7714 -1993
18.9770 -6.7198 -8.7724 -2017
18.9945 -6.7261 -8.7702 -1967
18.9962 -6.7268 -8.7604 -1958
18.9995 -6.7278 -8.7514 -2012
18.9562 -6.6011 -8.8307 -1938
18.9725 -6.6068 -8.8069 -1962
18.9675 -6.6141 -8.8152 -1965
18.9635 -6.6128 -8.8237 -1950
18.9637 -6.6128 -8.8342 -1926
18.9585 -6.6111 -8.8422 -1930
18.9342 -6.6026 -8.8414 -1965
18.9135 -6.6046 -8.8347 -1997
18.9447 -6.6156 -8.8387 -1960
18.9590 -6.6206 -8.8349 -1941
18.9625 -6.6216 -8.8262 -1982
18.9707 -6.6246 -8.8194 -1969
18.9722 -6.6346 -8.7977 -1963
18.9652 -6.6321 -8.8047 -1959
18.9630 -6.6313 -8.8139 -1979
18.9572 -6.6293 -8.8217 -1968
18.9575 -6.6293 -8.8324 -1973
18.9455 -6.6253 -8.8372 -1973
18.9182 -6.6248 -8.8277 -1956
18.9500 -6.6358 -8.8319 -1980
18.9530 -6.6371 -8.8229 -1967
18.9560 -6.6381 -8.8137 -1960
18.9647 -6.6411 -8.8074 -1971
18.9690 -6.6426 -8.7987 -1960
18.9597 -6.6488 -8.8127 -1971
18.9532 -6.6466 -8.8202 -1980
18.9447 -6.6436 -8.8264 -1957
18.9380 -6.6413 -8.8337 -1970
18.9150 -6.6423 -8.8324 -1972
18.9222 -6.6448 -8.8252 -1973
18.9407 -6.6513 -8.8234 -1987
18.9450 -6.6621 -8.8199 -1976
18.9120 -6.6506 -8.8149 -1966
18.9150 -6.6608 -8.8234 -1956
19.0140 -6.6026 -8.8114 -1914
19.0117 -6.6018 -8.7999 -1905
19.0272 -6.6071 -8.7967 -1928
19.0235 -6.6151 -8.7944 -1930
19.0057 -6.6088 -8.7967 -1898
19.0010 -6.6071 -8.8049 -1899
19.0095 -6.6101 -8.8194 -1906
18.9840 -6.6013 -8.8179 -1920
18.9777 -6.6086 -8.8302 -1909
18.9790 -6.6091 -8.8204 -1925
18.9865 -6.6116 -8.8029 -1892
18.9937 -6.6141 -8.7959 -1871
19.0187 -6.6228 -8.7972 -1932
19.0370 -6.6291 -8.7952 -1921
19.0312 -6.6363 -8.8029 -1927
18.9915 -6.6226 -8.7949 -1872
18.9840 -6.6198 -8.8019 -1854
18.9777 -6.6178 -8.8094 -1933
18.9760 -6.6263 -8.8114 -1920
18.9767 -6.6266 -8.8012 -1852
18.9852 -6.6296 -8.7947 -1904
19.0277 -6.6443 -8.8039 -1945
19.0370 -6.6478 -8.7874 -1874
19.0337 -6.6561 -8.7947 -1936
19.0162 -6.6498 -8.7972 -1966
18.9860 -6.6393 -8.7934 -1948
18.9852 -6.6481 -8.7959 -1946
19.0015 -6.6538 -8.7929 -1956
19.0277 -6.6631 -8.7947 -1954
19.0007 -6.6633 -8.8007 -1927
18.9985 -6.6623 -8.8099 -1948
18.9770 -6.6548 -8.8104 -1974
18.9750 -6.6633 -8.8287 -1966
19.0255 -6.6063 -8.7542 -1989
19.0210 -6.6141 -8.7517 -1994
19.0097 -6.6101 -8.7567 -1973
19.0345 -6.6188 -8.7787 -1938
19.0075 -6.6188 -8.7607 -1958
19.0137 -6.6211 -8.7532 -1981
19.0317 -6.6273 -8.7512 -2014
19.0307 -6.6361 -8.7502 -1998
19.0157 -6.6308 -8.7539 -2002
19.0067 -6.6278 -8.7602 -1964
19.0125 -6.6391 -8.7657 -1955
19.0092 -6.6381 -8.7537 -1987
19.0305 -6.6453 -8.7529 -2003
19.0327 -6.6556 -8.7524 -1997
19.0152 -6.6496 -8.7549 -2005
19.0057 -6.6463 -8.7609 -1965
19.0137 -6.6581 -8.7672 -1953
19.0072 -6.6558 -8.7539 -2010
19.0290 -6.6636 -8.7534 -1999
19.0572 -6.7951 -8.7279 -1945
19.0542 -6.7938 -8.7372 -1946
19.0487 -6.7921 -8.7452 -1965
19.0525 -6.8028 -8.7407 -1956
19.0555 -6.8038 -8.7317 -1952
19.0557 -6.8133 -8.7322 -1949
19.0482 -6.8106 -8.7394 -1967
19.0482 -6.8203 -8.7419 -1973
19.0537 -6.8221 -8.7339 -1952
19.0540 -6.8223 -8.7234 -1951
19.0520 -6.8308 -8.7322 -1952
19.0472 -6.8291 -8.7404 -1958
19.0447 -6.8376 -8.7434 -1967
19.0522 -6.8401 -8.7364 -1950
19.0535 -6.8406 -8.7264 -1953
19.0532 -6.8501 -8.7249 -1953
19.0532 -6.8501 -8.7357 -1951
19.0465 -6.8476 -8.7432 -1961
19.0602 -6.7306 -8.7367 -1949
19.0630 -6.7316 -8.7274 -1944
19.0620 -6.7408 -8.7242 -1946
19.0595 -6.7398 -8.7334 -1945
19.0537 -6.7378 -8.7414 -1963
19.0417 -6.7336 -8.7467 -1973
19.0502 -6.7458 -8.7434 -1979
19.0587 -6.7488 -8.7369 -1957
19.0600 -6.7493 -8.7269 -1945
19.0605 -6.7588 -8.7237 -1946
19.0590 -6.7583 -8.7334 -1953
19.0540 -6.7566 -8.7417 -1965
19.0470 -6.7633 -8.7454 -1969
19.0550 -6.7661 -8.7384 -1950
19.0585 -6.7676 -8.7297 -1946
19.0600 -6.7773 -8.7274 -1945
19.0552 -6.7758 -8.7359 -1957
19.0500 -6.7738 -8.7442 -1967
19.0430 -6.7806 -8.7474 -1981
19.0520 -6.7838 -8.7409 -1962
19.0575 -6.7858 -8.7329 -1952
19.0405 -6.6676 -8.7899 -1924
19.0442 -6.6876 -8.7874 -1919
19.0432 -6.6966 -8.7924 -1886
19.0687 -6.6683 -8.7269 -1951
19.0635 -6.6663 -8.7349 -1948
19.0427 -6.6683 -8.7492 -1990
19.0555 -6.6728 -8.7447 -1970
19.0642 -6.6758 -8.7382 -1955
19.0662 -6.6766 -8.7284 -1952
19.0642 -6.6856 -8.7247 -1950
19.0642 -6.6853 -8.7352 -1940
19.0565 -6.6828 -8.7424 -1965
19.0447 -6.6786 -8.7474 -1985
19.0495 -6.6896 -8.7479 -1984
19.0565 -6.6921 -8.7407 -1960
19.0625 -6.6941 -8.7329 -1946
19.0665 -6.6956 -8.7242 -1950
19.0642 -6.7041 -8.7282 -1947
19.0632 -6.7036 -8.7384 -1951
19.0522 -6.6998 -8.7439 -1976
19.0387 -6.6951 -8.7482 -2010
19.0447 -6.7066 -8.7474 -1980
19.0575 -6.7111 -8.7427 -1962
19.0617 -6.7126 -8.7344 -1949
19.0627 -6.7128 -8.7242 -1944
19.0622 -6.7218 -8.7307 -1948
19.0590 -6.7208 -8.7399 -1952
19.0480 -6.7168 -8.7454 -1972
19.0405 -6.7236 -8.7487 -1991
19.0530 -6.7281 -8.7439 -1966
19.0730 -6.6043 -8.8057 -1895
19.0607 -6.6093 -8.7972 -1925
19.0420 -6.6028 -8.7992 -1918
19.0527 -6.6161 -8.7982 -1904
19.0555 -6.6261 -8.7989 -1900
19.0437 -6.6316 -8.7879 -1917
19.0400 -6.6393 -8.7964 -1898
19.0435 -6.6501 -8.8007 -1913
19.0685 -6.6026 -8.7412 -1960
19.0712 -6.6036 -8.7319 -1946
19.0705 -6.6126 -8.7282 -1949
19.0690 -6.6121 -8.7382 -1943
19.0612 -6.6093 -8.7452 -1973
19.0475 -6.6046 -8.7492 -1979
19.0385 -6.6016 -8.7557 -2019
19.0425 -6.6123 -8.7829 -1934
19.0402 -6.6116 -8.7507 -1992
19.0492 -6.6148 -8.7444 -1976
19.0645 -6.6201 -8.7409 -1959
19.0715 -6.6223 -8.7337 -1948
19.0720 -6.6226 -8.7234 -1956
19.0680 -6.6303 -8.7312 -1945
19.0630 -6.6286 -8.7394 -1954
19.0520 -6.6248 -8.7447 -1990
19.0392 -6.6203 -8.7494 -2013
19.0460 -6.6323 -8.7472 -1985
19.0617 -6.6378 -8.7442 -1967
19.0675 -6.6398 -8.7362 -1949
19.0695 -6.6403 -8.7267 -1950
19.0670 -6.6488 -8.7247 -1944
19.0670 -6.6488 -8.7352 -1947
19.0622 -6.6471 -8.7437 -1978
19.0482 -6.6423 -8.7477 -1979
19.0387 -6.6391 -8.7854 -1888
19.0427 -6.6498 -8.7482 -1985
19.0560 -6.6543 -8.7439 -1967
19.0670 -6.6581 -8.7384 -1953
19.0670 -6.6581 -8.7279 -1947
19.0572 -6.6641 -8.7427 -1967
19.0457 -6.6601 -8.7479 -1981
19.0377 -6.6573 -8.7862 -1922
18.8382 -6.5601 -8.8384 -1989
18.8352 -6.5681 -8.8264 -1975
18.8260 -6.5648 -8.8327 -1970
18.7887 -6.5518 -8.8257 -1972
18.7850 -6.5598 -8.8269 -1963
18.8300 -6.5756 -8.8374 -1942
18.8305 -6.5756 -8.8272 -1944
18.8425 -6.5798 -8.8224 -1966
18.8350 -6.5866 -8.8274 -1956
18.8345 -6.5863 -8.8377 -1935
18.8175 -6.5806 -8.8402 -1954
18.8117 -6.5876 -8.8404 -1940
18.8422 -6.5983 -8.8339 -1943
18.7880 -6.5888 -8.8264 -1926
18.7865 -6.5973 -8.8244 -1928
18.8772 -6.5551 -8.8317 -1950
18.8897 -6.5686 -8.8367 -1953
18.8705 -6.5618 -8.8382 -1961
18.8590 -6.5673 -8.8377 -1978
18.8982 -6.5808 -8.8457 -1962
18.8837 -6.5851 -8.8387 -1996
18.8777 -6.5921 -8.8284 -1997
18.8600 -6.5953 -8.8287 -1973
18.9395 -6.5581 -8.8274 -1908
18.9500 -6.5616 -8.8219 -1918
18.9707 -6.5688 -8.8209 -1921
18.9515 -6.5713 -8.8094 -1886
18.9427 -6.5683 -8.8157 -1867
18.9385 -6.5668 -8.8242 -1884
18.9367 -6.5663 -8.8337 -1861
18.9155 -6.5683 -8.8392 -1916
18.9290 -6.5731 -8.8349 -1888
18.9315 -6.5738 -8.8257 -1977
18.9410 -6.5771 -8.8194 -1930
18.9460 -6.5788 -8.8114 -1977
18.9685 -6.5868 -8.8112 -1952
18.9677 -6.5956 -8.8207 -1941
18.9387 -6.5856 -8.8177 -1927
18.9337 -6.5838 -8.8259 -1933
18.9290 -6.5821 -8.8339 -1936
18.9200 -6.5791 -8.8404 -1918
18.9272 -6.5911 -8.8487 -1922
18.9290 -6.5916 -8.8389 -1931
18.9297 -6.5918 -8.8287 -1914
18.9115 -6.5946 -8.8412 -1982
19.0185 -6.5576 -8.8179 -1955
18.9822 -6.5543 -8.8147 -1993
19.0110 -6.5641 -8.8174 -1976
19.0260 -6.5693 -8.8139 -1936
19.0230 -6.5776 -8.8129 -1929
18.9995 -6.5693 -8.8124 -1985
18.9832 -6.5638 -8.8152 -1986
18.9797 -6.5626 -8.8242 -1901
18.9815 -6.5726 -8.8154 -1946
18.9860 -6.5741 -8.8072 -1985
19.0132 -6.5836 -8.8094 -1933
19.0182 -6.5853 -8.8012 -1894
19.0160 -6.5938 -8.7974 -1923
19.0080 -6.5908 -8.8042 -1919
18.9897 -6.5846 -8.8062 -1931
18.9792 -6.5811 -8.8117 -1956
19.0000 -6.5978 -8.8154 -1913
19.0350 -6.5443 -8.7494 -2017
19.0155 -6.5471 -8.7559 -1975
19.0292 -6.5518 -8.7519 -1999
19.0342 -6.5628 -8.7522 -1991
19.0182 -6.5573 -8.7554 -1986
19.0257 -6.5598 -8.7692 -1954
19.0165 -6.5661 -8.7574 -2000
19.0280 -6.5701 -8.7524 -2019
19.0330 -6.5808 -8.7549 -2020
19.0125 -6.5738 -8.7559 -2011
19.0187 -6.5853 -8.7597 -2007
19.0265 -6.5881 -8.7529 -2022
19.0120 -6.5923 -8.7539 -2008
19.0175 -6.5943 -8.7669 -1961
19.0097 -6.6011 -8.7574 -1970
19.0315 -6.5246 -8.7537 -2019
19.0272 -6.5326 -8.7692 -1959
19.0202 -6.5301 -8.7557 -2010
19.0142 -6.5371 -8.7504 -2021
19.0145 -6.5373 -8.7609 -1975
19.0725 -6.5573 -8.7982 -1925
19.0725 -6.5571 -8.8087 -1897
19.0912 -6.5733 -8.8327 -1900
19.0682 -6.5653 -8.8117 -1897
19.0772 -6.5683 -8.8052 -1918
19.0707 -6.5753 -8.8004 -1902
19.0595 -6.5716 -8.8057 -1915
19.0580 -6.5711 -8.8154 -1897
19.0390 -6.5646 -8.8172 -1929
19.0450 -6.5758 -8.8122 -1914
19.0545 -6.5791 -8.8062 -1928
19.0675 -6.5836 -8.8019 -1915
19.0640 -6.5918 -8.8007 -1925
19.0485 -6.5863 -8.8037 -1925
19.0412 -6.5838 -8.8109 -1890
19.0430 -6.5938 -8.8022 -1918
19.0742 -6.5391 -8.7312 -1956
19.0725 -6.5386 -8.7409 -1956
19.0512 -6.5408 -8.7489 -1986
19.0647 -6.5456 -8.7449 -1967
19.0715 -6.5478 -8.7374 -1951
19.0732 -6.5483 -8.7279 -1943
19.0725 -6.5571 -8.7247 -1951
19.0722 -6.5571 -8.7352 -1947
19.0685 -6.5558 -8.7439 -1961
19.0547 -6.5511 -8.7482 -1983
19.0580 -6.5618 -8.7859 -1930
19.0457 -6.5576 -8.7489 -1984
19.0585 -6.5618 -8.7444 -1969
19.0705 -6.5661 -8.7397 -1954
19.0737 -6.5671 -8.7307 -1951
19.0750 -6.5768 -8.7287 -1950
19.0715 -6.5756 -8.7377 -1953
19.0630 -6.5728 -8.7442 -1968
19.0467 -6.5671 -8.7474 -1984
19.0407 -6.5743 -8.7792 -1953
19.0470 -6.5766 -8.7509 -1987
19.0612 -6.5813 -8.7469 -1969
19.0690 -6.5841 -8.7399 -1957
19.0722 -6.5853 -8.7312 -1952
19.0700 -6.5938 -8.7299 -1944
19.0685 -6.5931 -8.7397 -1954
19.0592 -6.5901 -8.7459 -1969
19.0412 -6.5838 -8.7482 -2013
19.0450 -6.5851 -8.7814 -1961
19.0440 -6.5941 -8.7817 -1964
19.0452 -6.5946 -8.7512 -2006
19.0587 -6.5993 -8.7469 -1975
19.0772 -6.5126 -8.7329 -1941
19.0795 -6.5133 -8.7237 -1951
19.0755 -6.5211 -8.7302 -1949
19.0727 -6.5201 -8.7394 -1956
19.0627 -6.5168 -8.7452 -1968
19.0507 -6.5221 -8.7532 -2001
19.0590 -6.5251 -8.7464 -1972
19.0705 -6.5291 -8.7412 -1962
19.0735 -6.5301 -8.7322 -1950
19.0772 -6.5313 -8.7234 -1945
19.0577 -6.5336 -8.7447 -1976
19.0475 -6.5301 -8.7507 -1997
19.0397 -6.5368 -8.7542 -2017
19.4520 -6.8021 -8.7617 -2033
19.4942 -6.8361 -8.7804 -2030
19.4530 -6.7833 -8.7612 -2036
19.5262 -6.7611 -8.7902 -2021
19.5212 -6.7786 -8.7897 -2032
19.6022 -6.7968 -8.8089 -1953
19.5872 -6.8016 -8.8087 -1993
19.5932 -6.8131 -8.8089 -1989
19.5567 -6.8003 -8.8032 -2002
19.5752 -6.8166 -8.8074 -1970
19.6042 -6.8266 -8.8097 -1948
19.5812 -6.8281 -8.8082 -1975
19.5675 -6.8328 -8.8064 -1984
19.5977 -6.8433 -8.8094 -1958
19.6032 -6.8551 -8.8079 -1969
19.5797 -6.8468 -8.8082 -1952
19.5682 -6.8523 -8.8079 -1979
19.6717 -6.8016 -8.8094 -1979
19.6447 -6.7923 -8.8082 -1974
19.6175 -6.7926 -8.8097 -1955
19.6407 -6.8006 -8.8094 -1947
19.6602 -6.8073 -8.8074 -1956
19.6480 -6.8126 -8.8079 -1954
19.6250 -6.8048 -8.8084 -1953
19.6117 -6.8098 -8.8089 -1952
19.6352 -6.8181 -8.8087 -1958
19.6592 -6.8266 -8.8087 -1950
19.6672 -6.8388 -8.8099 -1968
19.6430 -6.8303 -8.8097 -1952
19.6177 -6.8216 -8.8092 -1927
19.6292 -6.8353 -8.8102 -1942
19.6525 -6.8433 -8.8099 -1969
19.6572 -6.8546 -8.8099 -1962
19.6285 -6.8446 -8.8077 -1951
19.6095 -6.8378 -8.8102 -1944
19.6217 -6.8518 -8.8094 -1967
19.6070 -6.7316 -8.8219 -1993
19.5850 -6.7431 -8.8149 -2015
19.6060 -6.7598 -8.8197 -1970
19.5635 -6.7548 -8.8062 -2004
19.5950 -6.7656 -8.8097 -1960
19.5970 -6.7758 -8.8084 -1963
19.5632 -6.7641 -8.8039 -1998
19.5907 -6.7833 -8.8087 -1968
19.5742 -6.7871 -8.8069 -1997
19.6695 -6.7431 -8.8404 -1937
19.6660 -6.7518 -8.8377 -1965
19.6690 -6.7621 -8.8344 -1984
19.6277 -6.7481 -8.8267 -1985
19.6362 -6.7606 -8.8272 -1954
19.6467 -6.7643 -8.8212 -1953
19.6542 -6.7668 -8.8137 -1929
19.6685 -6.7718 -8.8094 -1926
19.6520 -6.7758 -8.8079 -1951
19.6322 -6.7688 -8.8099 -1917
19.6175 -6.7638 -8.8139 -1946
19.6177 -6.7733 -8.8089 -1960
19.6425 -6.7821 -8.8094 -1972
19.6672 -6.7906 -8.8097 -1977
19.6197 -6.7838 -8.8079 -1970
19.6977 -6.7338 -8.8512 -1852
19.6910 -6.7313 -8.8589 -1954
19.7250 -6.8008 -8.8082 -1945
19.7015 -6.7928 -8.8084 -1971
19.6932 -6.7996 -8.8104 -1937
19.7152 -6.8071 -8.8097 -1970
19.7215 -6.8188 -8.8102 -1933
19.6960 -6.8101 -8.8094 -1938
19.6907 -6.8181 -8.8104 -1937
19.7145 -6.8263 -8.8102 -1958
19.7240 -6.8391 -8.8094 -1932
19.6995 -6.8306 -8.8094 -1946
19.6757 -6.8223 -8.8094 -1961
19.6882 -6.8366 -8.8109 -1975
19.7102 -6.8441 -8.8099 -1938
19.7340 -6.8523 -8.8097 -1923
19.6927 -6.8476 -8.8104 -1956
19.6787 -6.8526 -8.8109 -1932
19.7940 -6.7958 -8.8089 -1971
19.7840 -6.8016 -8.8104 -1971
19.7555 -6.7918 -8.8084 -1963
19.7407 -6.7966 -8.8092 -1966
19.7647 -6.8048 -8.8092 -1954
19.7912 -6.8141 -8.8102 -1951
19.7987 -6.8263 -8.8089 -1940
19.7767 -6.8188 -8.8099 -1954
19.7520 -6.8101 -8.8097 -1973
19.7382 -6.8151 -8.8092 -1966
19.7622 -6.8233 -8.8089 -1967
19.7862 -6.8316 -8.8089 -1947
19.7942 -6.8441 -8.8102 -1922
19.7712 -6.8361 -8.8107 -1954
19.7455 -6.8271 -8.8099 -1964
19.7397 -6.8348 -8.8107 -1955
19.7637 -6.8431 -8.8107 -1929
19.7875 -6.8516 -8.8104 -1948
19.7482 -6.8473 -8.8094 -1936
19.7122 -6.7293 -8.8194 -1965
19.7215 -6.7418 -8.8187 -1962
19.7075 -6.7371 -8.8232 -1951
19.6932 -6.7321 -8.8274 -1959
19.6857 -6.7296 -8.8349 -1847
19.6757 -6.7361 -8.8467 -1873
19.6827 -6.7386 -8.8392 -1890
19.6862 -6.7396 -8.8299 -1880
19.6977 -6.7436 -8.8244 -1930
19.7137 -6.7491 -8.8209 -1979
19.7335 -6.7651 -8.8259 -1971
19.7022 -6.7543 -8.8227 -1988
19.6872 -6.7491 -8.8267 -1915
19.6790 -6.7463 -8.8339 -1852
19.6900 -6.7601 -8.8379 -1907
19.6932 -6.7611 -8.8284 -1929
19.7087 -6.7666 -8.8247 -1960
19.7205 -6.7706 -8.8192 -1961
19.7315 -6.7743 -8.8132 -1962
19.7340 -6.7846 -8.8097 -1929
19.7135 -6.7773 -8.8112 -1932
19.6947 -6.7711 -8.8137 -1940
19.6847 -6.7676 -8.8199 -1971
19.6792 -6.7656 -8.8282 -1983
19.6902 -6.7793 -8.8084 -1915
19.7160 -6.7881 -8.8089 -1936
19.6775 -6.7846 -8.8084 -1978
19.7855 -6.7346 -8.8359 -1848
19.7907 -6.7363 -8.8277 -1928
19.7935 -6.7473 -8.8279 -1942
19.7727 -6.7401 -8.8294 -2004
19.7410 -6.7391 -8.8214 -1972
19.7602 -6.7456 -8.8194 -1982
19.7672 -6.7576 -8.8177 -1966
19.7500 -6.7516 -8.8207 -1984
19.7667 -6.7671 -8.8337 -1935
19.7775 -6.7708 -8.8279 -1954
19.7880 -6.7746 -8.8217 -1973
19.7987 -6.7781 -8.8159 -1944
19.7927 -6.7853 -8.8094 -1952
19.7725 -6.7783 -8.8112 -1958
19.7610 -6.7746 -8.8167 -1965
19.7492 -6.7703 -8.8222 -1966
19.7477 -6.7798 -8.8099 -1943
19.7677 -6.7866 -8.8079 -1965
19.6632 -6.7126 -8.8509 -2026
19.5665 -6.6986 -8.8082 -2032
19.6065 -6.7216 -8.8227 -1980
19.6722 -6.6676 -8.8217 -2003
19.6695 -6.6666 -8.8419 -1915
19.6420 -6.6671 -8.8264 -1980
19.6625 -6.6741 -8.8249 -1997
19.6720 -6.6773 -8.8184 -2000
19.6655 -6.6846 -8.8212 -1993
19.6697 -6.6861 -8.8339 -1968
19.6587 -6.6823 -8.8397 -1970
19.6642 -6.6933 -8.8459 -1987
19.5945 -6.6221 -8.8164 -2023
19.5685 -6.6323 -8.8074 -2033
19.6415 -6.6096 -8.8299 -1953
19.6550 -6.6233 -8.8307 -1960
19.6200 -6.6116 -8.8259 -2002
19.6342 -6.6261 -8.8294 -1991
19.6592 -6.6346 -8.8299 -1965
19.6622 -6.6451 -8.8254 -1959
19.6490 -6.6406 -8.8302 -1979
19.6297 -6.6436 -8.8279 -2000
19.6462 -6.6493 -8.8247 -1964
19.6642 -6.6553 -8.8219 -1985
19.6612 -6.6638 -8.8277 -1973
19.6275 -6.6621 -8.8304 -2002
19.6842 -6.7101 -8.8544 -1992
19.7050 -6.7268 -8.8589 -1929
19.7105 -6.6711 -8.8212 -2002
19.7235 -6.6848 -8.8232 -1988
19.6862 -6.6723 -8.8172 -2009
19.6892 -6.6831 -8.8154 -1986
19.7305 -6.6971 -8.8232 -1993
19.7327 -6.7076 -8.8297 -1959
19.6825 -6.6903 -8.8179 -1973
19.6787 -6.6983 -8.8417 -1971
19.6757 -6.6973 -8.8297 -1946
19.6825 -6.6996 -8.8219 -1956
19.7322 -6.7166 -8.8337 -1968
19.7330 -6.7266 -8.8224 -1986
19.7102 -6.7191 -8.8229 -1951
19.6987 -6.7151 -8.8287 -1912
19.6952 -6.7138 -8.8377 -1905
19.6910 -6.7123 -8.8467 -1974
19.6937 -6.7231 -8.8432 -1842
19.6897 -6.7216 -8.8307 -1850
19.6985 -6.7246 -8.8239 -1947
19.7995 -6.6718 -8.8414 -1977
19.7772 -6.6743 -8.8399 -1967
19.7905 -6.6883 -8.8397 -1975
19.7430 -6.6723 -8.8292 -1975
19.7472 -6.6836 -8.8269 -1979
19.7967 -6.7001 -8.8382 -1965
19.7745 -6.7021 -8.8352 -1968
19.7900 -6.7173 -8.8392 -1976
19.7915 -6.7273 -8.8344 -1936
19.7792 -6.7233 -8.8397 -1906
19.7540 -6.7238 -8.8327 -1966
19.7277 -6.6193 -8.8327 -1925
19.6975 -6.6186 -8.8242 -1963
19.6830 -6.6138 -8.8284 -1964
19.6952 -6.6276 -8.8434 -1955
19.7095 -6.6326 -8.8392 -1930
19.7062 -6.6313 -8.8269 -1955
19.7322 -6.6493 -8.8329 -1931
19.7142 -6.6433 -8.8357 -1956
19.6955 -6.6368 -8.8382 -1940
19.7160 -6.6536 -8.8444 -1922
19.7200 -6.6551 -8.8357 -1936
19.7205 -6.6551 -8.8252 -1968
19.7007 -6.6581 -8.8212 -1987
19.6855 -6.6528 -8.8252 -1969
19.6840 -6.6621 -8.8202 -2015
19.7980 -6.6331 -8.8237 -1906
19.7870 -6.6293 -8.8297 -1902
19.7762 -6.6258 -8.8357 -1944
19.7775 -6.6361 -8.8442 -1921
19.7797 -6.6368 -8.8344 -1878
19.7867 -6.6391 -8.8269 -1802
19.7935 -6.6413 -8.8192 -1875
19.7910 -6.6501 -8.8234 -1966
19.7795 -6.6461 -8.8289 -1886
19.7762 -6.6451 -8.8379 -1914
19.7672 -6.6421 -8.8447 -1916
19.7415 -6.6431 -8.8319 -1940
19.7572 -6.6486 -8.8282 -1943
19.7950 -6.6611 -8.8344 -1964
19.7385 -6.6513 -8.8249 -1962
19.0310 -6.7951 -8.6259 -1965
19.0337 -6.7961 -8.6167 -1989
19.0327 -6.7958 -8.6057 -1988
19.0347 -6.8058 -8.6062 -1968
19.0320 -6.8048 -8.6157 -1960
19.0315 -6.8046 -8.6259 -1953
19.0342 -6.8151 -8.6304 -1953
19.0325 -6.8146 -8.6192 -1952
19.0320 -6.8143 -8.6084 -1961
19.0347 -6.8246 -8.6079 -1971
19.0297 -6.8228 -8.6162 -1949
19.0317 -6.8236 -8.6274 -1950
19.0367 -6.8346 -8.6347 -1951
19.0280 -6.8313 -8.6202 -1946
19.0295 -6.8318 -8.6104 -1963
19.0350 -6.8338 -8.6024 -2012
19.0310 -6.8421 -8.6089 -1963
19.0295 -6.8416 -8.6189 -1950
19.0292 -6.8413 -8.6292 -1951
19.0292 -6.8508 -8.6269 -1950
19.0285 -6.8506 -8.6162 -1960
19.0310 -6.8516 -8.6069 -1976
18.9507 -6.7758 -8.7157 -1966
18.9527 -6.7861 -8.7189 -1973
18.9682 -6.7916 -8.7157 -2016
18.9775 -6.7853 -8.7174 -2012
19.0365 -6.7316 -8.6274 -1953
19.0330 -6.7398 -8.6204 -1955
19.0370 -6.7411 -8.6117 -1982
19.0372 -6.7506 -8.6174 -1949
19.0345 -6.7588 -8.6242 -1954
19.0375 -6.7598 -8.6152 -1971
19.0340 -6.7681 -8.5992 -2015
19.0352 -6.7686 -8.6207 -1955
19.0325 -6.7768 -8.6272 -1950
19.0322 -6.7768 -8.6167 -1950
19.0367 -6.7783 -8.6082 -1981
19.0322 -6.7861 -8.6107 -2003
19.0367 -6.7876 -8.6232 -1969
18.9627 -6.7241 -8.7209 -2000
19.0370 -6.6943 -8.6202 -1960
19.0582 -6.7953 -8.6644 -1945
19.0577 -6.7951 -8.6749 -1948
19.0620 -6.7966 -8.6874 -1959
19.0590 -6.7956 -8.6967 -1951
19.0600 -6.7958 -8.7077 -1955
19.0592 -6.7956 -8.7182 -1956
19.0570 -6.8046 -8.7219 -1954
19.0552 -6.8038 -8.7104 -1943
19.0582 -6.8048 -8.7014 -1948
19.0597 -6.8056 -8.6917 -1952
19.0590 -6.8051 -8.6807 -1952
19.0570 -6.8043 -8.6692 -1937
19.0597 -6.8148 -8.6704 -1947
19.0570 -6.8138 -8.6797 -1952
19.0587 -6.8143 -8.6912 -1953
19.0595 -6.8146 -8.7019 -1954
19.0567 -6.8136 -8.7114 -1950
19.0570 -6.8138 -8.7222 -1950
19.0567 -6.8233 -8.7144 -1953
19.0572 -6.8233 -8.7039 -1947
19.0575 -6.8233 -8.6937 -1961
19.0580 -6.8236 -8.6834 -1959
19.0580 -6.8236 -8.6729 -1949
19.0575 -6.8236 -8.6622 -1950
19.0572 -6.8326 -8.6602 -1944
19.0562 -6.8323 -8.6704 -1948
19.0577 -6.8328 -8.6817 -1957
19.0552 -6.8321 -8.6912 -1957
19.0577 -6.8328 -8.7027 -1946
19.0572 -6.8326 -8.7132 -1949
19.0545 -6.8318 -8.7227 -1950
19.0550 -6.8411 -8.7164 -1951
19.0580 -6.8423 -8.7074 -1949
19.0555 -6.8413 -8.6957 -1951
19.0565 -6.8416 -8.6857 -1958
19.0540 -6.8406 -8.6739 -1949
19.0552 -6.8411 -8.6642 -1950
19.0560 -6.8511 -8.6624 -1949
19.0575 -6.8516 -8.6737 -1951
19.0560 -6.8511 -8.6834 -1948
19.0545 -6.8506 -8.6934 -1954
19.0545 -6.8506 -8.7042 -1947
19.0557 -6.8508 -8.7154 -1950
19.0537 -6.7936 -8.5992 -2031
19.0585 -6.7953 -8.6539 -1944
19.0575 -6.8046 -8.6589 -1943
19.0495 -6.8018 -8.6449 -1956
19.0430 -6.7993 -8.5999 -2022
19.0642 -6.8071 -8.5992 -2034
19.0462 -6.8098 -8.6012 -2001
19.0492 -6.8111 -8.6444 -1960
19.0560 -6.8133 -8.6579 -1948
19.0537 -6.8221 -8.6499 -1955
19.0417 -6.8178 -8.6024 -1985
19.0577 -6.8236 -8.5992 -2029
19.0447 -6.8281 -8.6019 -2021
19.0485 -6.8296 -8.6457 -1958
19.0535 -6.8406 -8.6529 -1951
19.0555 -6.8413 -8.6014 -2028
19.0525 -6.8496 -8.5977 -2033
19.0382 -6.8446 -8.6019 -2014
19.0517 -6.8493 -8.6499 -1960
19.0627 -6.7316 -8.7169 -1952
19.0640 -6.7318 -8.7069 -1950
19.0645 -6.7321 -8.6967 -1960
19.0640 -6.7318 -8.6862 -1967
19.0655 -6.7323 -8.6764 -1947
19.0625 -6.7313 -8.6644 -1955
19.0645 -6.7416 -8.6614 -1949
19.0627 -6.7408 -8.6712 -1945
19.0617 -6.7406 -8.6814 -1954
19.0617 -6.7406 -8.6922 -1961
19.0635 -6.7413 -8.7034 -1943
19.0617 -6.7406 -8.7132 -1956
19.0575 -6.7483 -8.7154 -1951
19.0620 -6.7501 -8.7069 -1948
19.0625 -6.7501 -8.6967 -1951
19.0632 -6.7503 -8.6864 -1952
19.0632 -6.7503 -8.6759 -1950
19.0615 -6.7498 -8.6647 -1948
19.0620 -6.7593 -8.6607 -1943
19.0625 -6.7593 -8.6714 -1943
19.0612 -6.7591 -8.6814 -1957
19.0625 -6.7596 -8.6927 -1957
19.0627 -6.7596 -8.7034 -1950
19.0615 -6.7591 -8.7134 -1946
19.0582 -6.7673 -8.7192 -1947
19.0637 -6.7693 -8.7109 -1950
19.0607 -6.7683 -8.6992 -1949
19.0597 -6.7678 -8.6882 -1959
19.0602 -6.7681 -8.6779 -1949
19.0615 -6.7686 -8.6679 -1949
19.0575 -6.7766 -8.6627 -1940
19.0580 -6.7768 -8.6734 -1947
19.0597 -6.7773 -8.6849 -1954
19.0605 -6.7776 -8.6959 -1955
19.0567 -6.7763 -8.7047 -1951
19.0582 -6.7768 -8.7159 -1951
19.0572 -6.7858 -8.7224 -1948
19.0595 -6.7866 -8.7129 -1952
19.0602 -6.7868 -8.7027 -1948
19.0580 -6.7861 -8.6912 -1961
19.0590 -6.7863 -8.6812 -1948
19.0615 -6.7873 -8.6719 -1946
19.0582 -6.7861 -8.6599 -1947
19.0625 -6.7313 -8.6539 -1953
19.0545 -6.7381 -8.6042 -2022
19.0390 -6.7326 -8.6077 -2004
19.0397 -6.7328 -8.6184 -1971
19.0582 -6.7393 -8.6479 -1961
19.0642 -6.7508 -8.6554 -1949
19.0450 -6.7441 -8.6362 -1958
19.0445 -6.7438 -8.6044 -2014
19.0555 -6.7476 -8.5989 -2029
19.0667 -6.7608 -8.5992 -2034
19.0385 -6.7508 -8.5972 -2022
19.0377 -6.7506 -8.6072 -1980
19.0387 -6.7511 -8.6289 -1954
19.0552 -6.7568 -8.6469 -1957
19.0615 -6.7686 -8.6574 -1942
19.0475 -6.7636 -8.6407 -1952
19.0377 -6.7601 -8.6047 -2000
19.0592 -6.7771 -8.5999 -2032
19.0387 -6.7698 -8.6119 -1986
19.0377 -6.7696 -8.6324 -1953
19.0572 -6.7763 -8.6519 -1952
19.0570 -6.7856 -8.6489 -1958
19.0397 -6.7796 -8.5992 -2021
19.0602 -6.7868 -8.5979 -2035
19.0440 -6.7903 -8.6054 -2017
19.0390 -6.7883 -8.6347 -1954
19.0517 -6.8118 -8.5932 -2033
19.0527 -6.8311 -8.5949 -2035
19.0512 -6.7368 -8.5922 -2036
19.0395 -6.7606 -8.5952 -2027
19.0532 -6.7656 -8.5909 -2039
19.0677 -6.6678 -8.6627 -1955
19.0677 -6.6678 -8.6732 -1957
19.0700 -6.6686 -8.6849 -1962
19.0685 -6.6681 -8.6949 -1957
19.0680 -6.6678 -8.7052 -1944
19.0667 -6.6676 -8.7154 -1947
19.0667 -6.6768 -8.7184 -1950
19.0677 -6.6771 -8.7084 -1950
19.0677 -6.6771 -8.6979 -1954
19.0677 -6.6771 -8.6874 -1964
19.0705 -6.6781 -8.6782 -1952
19.0680 -6.6771 -8.6664 -1947
19.0682 -6.6868 -8.6627 -1948
19.0685 -6.6868 -8.6734 -1953
19.0655 -6.6858 -8.6827 -1962
19.0687 -6.6871 -8.6949 -1960
19.0655 -6.6858 -8.7039 -1950
19.0687 -6.6871 -8.7162 -1946
19.0665 -6.6956 -8.7137 -1948
19.0695 -6.6966 -8.7047 -1947
19.0660 -6.6953 -8.6927 -1961
19.0647 -6.6948 -8.6814 -1957
19.0675 -6.6958 -8.6722 -1955
19.0677 -6.6958 -8.6619 -1950
19.0662 -6.7046 -8.6652 -1942
19.0665 -6.7048 -8.6759 -1952
19.0665 -6.7048 -8.6867 -1959
19.0667 -6.7048 -8.6974 -1942
19.0670 -6.7048 -8.7082 -1950
19.0655 -6.7043 -8.7182 -1955
19.0637 -6.7131 -8.7142 -1950
19.0650 -6.7136 -8.7042 -1944
19.0642 -6.7133 -8.6934 -1961
19.0637 -6.7131 -8.6827 -1946
19.0670 -6.7143 -8.6737 -1949
19.0635 -6.7131 -8.6617 -1949
19.0647 -6.7228 -8.6682 -1952
19.0665 -6.7236 -8.6797 -1952
19.0660 -6.7233 -8.6899 -1952
19.0647 -6.7228 -8.6999 -1946
19.0635 -6.7223 -8.7102 -1953
19.0630 -6.7223 -8.7207 -1947
19.0772 -6.6711 -8.6034 -2030
19.0660 -6.6673 -8.6512 -1952
19.0670 -6.6768 -8.6554 -1947
19.0537 -6.6721 -8.6389 -1952
19.0440 -6.6688 -8.6242 -1957
19.0447 -6.6688 -8.6139 -1959
19.0472 -6.6698 -8.6047 -1992
19.0527 -6.6718 -8.5967 -2027
19.0957 -6.6868 -8.6057 -2038
19.0672 -6.6866 -8.5987 -2035
19.0512 -6.6808 -8.6019 -2015
19.0430 -6.6778 -8.6089 -1967
19.0407 -6.6771 -8.6184 -1950
19.0440 -6.6783 -8.6304 -1946
19.0652 -6.6858 -8.6507 -1947
19.0635 -6.6943 -8.6494 -1955
19.0420 -6.6868 -8.6292 -1954
19.0422 -6.6868 -8.6189 -1960
19.0465 -6.6883 -8.6104 -1990
19.0495 -6.6896 -8.6014 -2021
19.0647 -6.6948 -8.5977 -2034
19.0612 -6.7028 -8.5994 -2032
19.0475 -6.6981 -8.6039 -2016
19.0415 -6.6958 -8.6117 -1987
19.0485 -6.6983 -8.6359 -1954
19.0642 -6.7041 -8.6537 -1950
19.0602 -6.7118 -8.6497 -1954
19.0397 -6.7046 -8.6299 -1963
19.0397 -6.7046 -8.6192 -1972
19.0397 -6.7046 -8.6089 -1986
19.0472 -6.7073 -8.6017 -2017
19.0697 -6.7246 -8.5967 -2038
19.0502 -6.7176 -8.5984 -2025
19.0422 -6.7148 -8.6052 -1982
19.0407 -6.7143 -8.6152 -1962
19.0400 -6.7141 -8.6254 -1966
19.0547 -6.7193 -8.6424 -1953
19.0632 -6.7223 -8.6569 -1944
19.0455 -6.7253 -8.6357 -1958
19.0377 -6.7226 -8.6217 -1951
19.0410 -6.7238 -8.6127 -1967
19.0425 -6.7243 -8.6029 -2003
19.0510 -6.7273 -8.5962 -2031
19.0722 -6.6038 -8.7219 -1951
19.0737 -6.6043 -8.7122 -1956
19.0722 -6.6038 -8.7012 -1958
19.0730 -6.6041 -8.6909 -1955
19.0747 -6.6048 -8.6812 -1954
19.0725 -6.6038 -8.6697 -1954
19.0722 -6.6131 -8.6654 -1952
19.0750 -6.6141 -8.6774 -1954
19.0760 -6.6143 -8.6884 -1955
19.0760 -6.6146 -8.6989 -1961
19.0732 -6.6136 -8.7082 -1947
19.0715 -6.6128 -8.7182 -1948
19.0720 -6.6226 -8.7132 -1952
19.0730 -6.6228 -8.7029 -1951
19.0725 -6.6228 -8.6922 -1964
19.0710 -6.6223 -8.6812 -1963
19.0742 -6.6233 -8.6722 -1952
19.0712 -6.6223 -8.6604 -1952
19.0737 -6.6323 -8.6702 -1951
19.0710 -6.6316 -8.6797 -1950
19.0712 -6.6316 -8.6902 -1959
19.0707 -6.6313 -8.7007 -1942
19.0697 -6.6311 -8.7107 -1955
19.0705 -6.6313 -8.7217 -1959
19.0705 -6.6408 -8.7167 -1951
19.0687 -6.6401 -8.7054 -1950
19.0717 -6.6411 -8.6964 -1948
19.0705 -6.6408 -8.6852 -1959
19.0702 -6.6406 -8.6747 -1952
19.0690 -6.6403 -8.6637 -1951
19.0702 -6.6498 -8.6627 -1955
19.0705 -6.6501 -8.6734 -1956
19.0685 -6.6493 -8.6832 -1958
19.0712 -6.6503 -8.6949 -1956
19.0697 -6.6498 -8.7049 -1952
19.0685 -6.6493 -8.7149 -1951
19.0682 -6.6586 -8.7179 -1956
19.0685 -6.6586 -8.7077 -1953
19.0667 -6.6581 -8.6964 -1956
19.0672 -6.6581 -8.6862 -1967
19.0682 -6.6586 -8.6762 -1952
19.0697 -6.6591 -8.6664 -1950
19.0730 -6.6041 -8.6594 -1953
19.0667 -6.6018 -8.6462 -1954
19.0697 -6.6123 -8.6009 -2029
19.0495 -6.6053 -8.6024 -2003
19.0492 -6.6051 -8.6129 -1961
19.0482 -6.6048 -8.6229 -1949
19.0542 -6.6068 -8.6362 -1957
19.0705 -6.6126 -8.6542 -1954
19.0677 -6.6211 -8.6482 -1961
19.0480 -6.6143 -8.6289 -1958
19.0462 -6.6136 -8.6177 -1956
19.0495 -6.6148 -8.6084 -1982
19.0535 -6.6161 -8.5999 -2020
19.0782 -6.6248 -8.6007 -2036
19.0627 -6.6286 -8.6019 -2023
19.0520 -6.6248 -8.6077 -1999
19.0477 -6.6233 -8.6162 -1966
19.0457 -6.6226 -8.6259 -1959
19.0635 -6.6288 -8.6444 -1964
19.0707 -6.6313 -8.6582 -1946
19.0700 -6.6406 -8.6534 -1953
19.0510 -6.6341 -8.6344 -1955
19.0455 -6.6321 -8.6214 -1953
19.0472 -6.6326 -8.6117 -1967
19.0522 -6.6343 -8.6037 -2008
19.0625 -6.6378 -8.5977 -2032
19.0705 -6.6498 -8.5994 -2032
19.0555 -6.6446 -8.6032 -2013
19.0445 -6.6408 -8.6089 -1967
19.0430 -6.6403 -8.6187 -1961
19.0487 -6.6423 -8.6319 -1957
19.0665 -6.6486 -8.6504 -1961
19.0695 -6.6588 -8.6557 -1950
19.0527 -6.6531 -8.6377 -1954
19.0437 -6.6501 -8.6232 -1952
19.0422 -6.6493 -8.6119 -1979
19.0452 -6.6503 -8.6029 -1999
19.0622 -6.6563 -8.5999 -2027
19.0450 -6.6598 -8.5994 -2008
19.0445 -6.6596 -8.6097 -1963
19.0427 -6.6591 -8.6194 -1956
19.0460 -6.6603 -8.6317 -1960
19.1017 -6.6046 -8.6069 -2037
19.1142 -6.6276 -8.6107 -2039
19.0545 -6.7098 -8.5944 -2035
19.0647 -6.6013 -8.5929 -2036
19.0767 -6.6613 -8.5962 -2040
19.2777 -6.7128 -8.6842 -2039
19.0765 -6.5398 -8.6684 -1954
19.0792 -6.5408 -8.6804 -1951
19.0782 -6.5406 -8.6904 -1961
19.0825 -6.5418 -8.7032 -1945
19.0790 -6.5408 -8.7122 -1955
19.0762 -6.5398 -8.7214 -1947
19.0765 -6.5496 -8.7189 -1950
19.0775 -6.5498 -8.7089 -1953
19.0762 -6.5493 -8.6979 -1944
19.0780 -6.5501 -8.6884 -1947
19.0782 -6.5501 -8.6782 -1947
19.0767 -6.5496 -8.6669 -1955
19.0760 -6.5583 -8.6627 -1948
19.0775 -6.5588 -8.6739 -1949
19.0775 -6.5588 -8.6847 -1950
19.0782 -6.5591 -8.6957 -1956
19.0775 -6.5588 -8.7057 -1948
19.0775 -6.5588 -8.7164 -1954
19.0762 -6.5681 -8.7214 -1953
19.0750 -6.5676 -8.7104 -1951
19.0767 -6.5681 -8.7009 -1952
19.0765 -6.5681 -8.6904 -1965
19.0760 -6.5678 -8.6797 -1952
19.0767 -6.5681 -8.6697 -1947
19.0782 -6.5781 -8.6664 -1955
19.0742 -6.5766 -8.6752 -1950
19.0772 -6.5776 -8.6872 -1956
19.0757 -6.5771 -8.6972 -1951
19.0755 -6.5771 -8.7077 -1952
19.0750 -6.5768 -8.7182 -1949
19.0737 -6.5858 -8.7214 -1950
19.0737 -6.5858 -8.7112 -1950
19.0747 -6.5861 -8.7012 -1946
19.0762 -6.5866 -8.6912 -1959
19.0742 -6.5858 -8.6799 -1957
19.0755 -6.5863 -8.6702 -1954
19.0740 -6.5951 -8.6682 -1951
19.0732 -6.5948 -8.6784 -1946
19.0720 -6.5943 -8.6884 -1956
19.0727 -6.5946 -8.6994 -1950
19.0727 -6.5946 -8.7102 -1950
19.0740 -6.5951 -8.7212 -1950
19.0725 -6.5383 -8.6454 -1953
19.0762 -6.5398 -8.6579 -1954
19.0772 -6.5498 -8.6567 -1951
19.0657 -6.5458 -8.6412 -1960
19.0507 -6.5406 -8.6239 -1963
19.0532 -6.5413 -8.6144 -1960
19.0582 -6.5431 -8.6064 -1997
19.0735 -6.5483 -8.6027 -2026
19.0707 -6.5566 -8.5972 -2033
19.0542 -6.5508 -8.6002 -2014
19.0547 -6.5508 -8.6109 -1981
19.0517 -6.5498 -8.6202 -1955
19.0535 -6.5506 -8.6314 -1956
19.0760 -6.5583 -8.6522 -1957
19.0770 -6.5681 -8.6592 -1946
19.0690 -6.5656 -8.6452 -1960
19.0512 -6.5593 -8.6267 -1963
19.0530 -6.5598 -8.6172 -1972
19.0520 -6.5596 -8.6062 -1986
19.0560 -6.5611 -8.5977 -2017
19.0522 -6.5691 -8.6019 -1994
19.0540 -6.5696 -8.6132 -1970
19.0507 -6.5686 -8.6222 -1956
19.0585 -6.5711 -8.6364 -1953
19.0740 -6.5766 -8.6539 -1954
19.0745 -6.5858 -8.6592 -1953
19.0720 -6.5851 -8.6477 -1955
19.0495 -6.5773 -8.6269 -1957
19.0495 -6.5773 -8.6164 -1959
19.0507 -6.5776 -8.6067 -1973
19.0577 -6.5801 -8.5994 -2021
19.0602 -6.5903 -8.5987 -2023
19.0510 -6.5871 -8.6052 -1982
19.0505 -6.5871 -8.6154 -1955
19.0480 -6.5861 -8.6249 -1953
19.0612 -6.5906 -8.6414 -1962
19.0710 -6.5941 -8.6564 -1952
19.0477 -6.5953 -8.6272 -1946
19.0497 -6.5961 -8.6177 -1956
19.0495 -6.5961 -8.6069 -1971
19.0562 -6.5983 -8.5994 -2022
19.0837 -6.4776 -8.6694 -1954
19.0810 -6.4858 -8.6637 -1955
19.0807 -6.4858 -8.6742 -1955
19.0802 -6.4858 -8.6847 -1962
19.0802 -6.4948 -8.6977 -1944
19.0830 -6.4956 -8.6884 -1959
19.0797 -6.4946 -8.6764 -1960
19.0795 -6.4943 -8.6659 -1955
19.0797 -6.5041 -8.6672 -1952
19.0832 -6.5053 -8.6794 -1954
19.0797 -6.5041 -8.6884 -1968
19.0802 -6.5043 -8.6992 -1948
19.0800 -6.5041 -8.7097 -1954
19.0802 -6.5043 -8.7204 -1956
19.0792 -6.5133 -8.7129 -1959
19.0805 -6.5138 -8.7032 -1948
19.0807 -6.5138 -8.6927 -1961
19.0795 -6.5133 -8.6817 -1952
19.0795 -6.5133 -8.6714 -1954
19.0795 -6.5133 -8.6609 -1953
19.0800 -6.5226 -8.6687 -1949
19.0807 -6.5228 -8.6794 -1952
19.0787 -6.5221 -8.6892 -1961
19.0795 -6.5226 -8.7002 -1948
19.0785 -6.5221 -8.7104 -1953
19.0777 -6.5218 -8.7207 -1952
19.0777 -6.5316 -8.7132 -1950
19.0780 -6.5316 -8.7029 -1948
19.0775 -6.5313 -8.6922 -1956
19.0780 -6.5316 -8.6819 -1955
19.0807 -6.5323 -8.6729 -1953
19.0792 -6.5318 -8.6617 -1950
19.0800 -6.4763 -8.6572 -1953
19.0757 -6.4841 -8.5984 -2030
19.0597 -6.4786 -8.6014 -2015
19.0585 -6.4783 -8.6114 -1974
19.0570 -6.4778 -8.6214 -1954
19.0587 -6.4783 -8.6327 -1950
19.0815 -6.4861 -8.6534 -1953
19.0800 -6.4946 -8.6557 -1955
19.0660 -6.4898 -8.6389 -1957
19.0555 -6.4863 -8.6239 -1959
19.0547 -6.4858 -8.6132 -1961
19.0602 -6.4878 -8.6052 -1986
19.0700 -6.4911 -8.5992 -2026
19.0637 -6.4986 -8.5964 -2027
19.0600 -6.4973 -8.6054 -1990
19.0580 -6.4966 -8.6149 -1960
19.0552 -6.4958 -8.6242 -1949
19.0672 -6.4998 -8.6404 -1954
19.0792 -6.5038 -8.6562 -1953
19.0740 -6.5113 -8.6479 -1956
19.0552 -6.5051 -8.6292 -1965
19.0552 -6.5051 -8.6187 -1945
19.0550 -6.5048 -8.6082 -1972
19.0542 -6.5046 -8.5974 -2019
19.0835 -6.5146 -8.6002 -2035
19.0660 -6.5178 -8.5989 -2027
19.0577 -6.5151 -8.6057 -1978
19.0532 -6.5133 -8.6142 -1958
19.0565 -6.5146 -8.6262 -1952
19.0652 -6.5176 -8.6407 -1956
19.0812 -6.5231 -8.6584 -1953
19.0787 -6.5318 -8.6512 -1951
19.0560 -6.5238 -8.6304 -1961
19.0552 -6.5236 -8.6197 -1951
19.0550 -6.5236 -8.6092 -1973
19.0615 -6.5258 -8.6017 -2002
19.0802 -6.5323 -8.5997 -2032
19.0692 -6.5373 -8.6019 -2023
19.0542 -6.5323 -8.6057 -1973
19.0522 -6.5316 -8.6152 -1956
19.0535 -6.5321 -8.6264 -1961
19.1062 -6.5036 -8.6052 -2037
19.1052 -6.5313 -8.6059 -2040
19.0692 -6.5468 -8.5904 -2038
19.0687 -6.5653 -8.5929 -2034
19.0620 -6.5723 -8.5959 -2028
19.0545 -6.5791 -8.5874 -2036
19.0607 -6.5343 -8.5877 -2037
19.0865 -6.4316 -8.5964 -2035
19.0860 -6.4411 -8.6037 -2028
19.0762 -6.4468 -8.6044 -2020
19.0610 -6.4418 -8.6079 -1970
19.0560 -6.4496 -8.6219 -1951
19.0595 -6.4508 -8.6132 -1962
19.0615 -6.4513 -8.6037 -2000
19.0840 -6.4591 -8.6034 -2027
19.0770 -6.4658 -8.5967 -2034
19.0642 -6.4613 -8.6014 -2007
19.0577 -6.4593 -8.6092 -1965
19.0582 -6.4593 -8.6199 -1954
19.0612 -6.4603 -8.6317 -1954
19.0802 -6.4668 -8.6509 -1952
19.0710 -6.4733 -8.6427 -1949
19.0560 -6.4681 -8.6254 -1954
19.0585 -6.4688 -8.6162 -1959
19.0597 -6.4693 -8.6062 -1998
19.0665 -6.4716 -8.5989 -2023
19.1072 -6.4483 -8.6027 -2038
19.1012 -6.4553 -8.6052 -2035
19.1107 -6.4681 -8.6049 -2038
19.8890 -6.7508 -8.8509 -1929
19.8535 -6.7968 -8.8079 -1956
19.8417 -6.8021 -8.8097 -1973
19.8150 -6.7928 -8.8084 -1961
19.8197 -6.8046 -8.8094 -1963
19.8435 -6.8126 -8.8092 -1952
19.8542 -6.8258 -8.8094 -1957
19.8342 -6.8188 -8.8112 -1969
19.8067 -6.8096 -8.8097 -1974
19.8147 -6.8221 -8.8099 -1946
19.8402 -6.8308 -8.8104 -1953
19.8627 -6.8386 -8.8097 -1946
19.8480 -6.8433 -8.8094 -1926
19.8245 -6.8351 -8.8097 -1944
19.8145 -6.8413 -8.8107 -1950
19.8400 -6.8501 -8.8112 -1952
19.8182 -6.8523 -8.8099 -1970
19.9237 -6.7916 -8.8107 -1923
19.9080 -6.7961 -8.8094 -1974
19.9160 -6.8083 -8.8084 -1968
19.8957 -6.8013 -8.8102 -1978
19.8712 -6.7931 -8.8099 -1979
19.8807 -6.8061 -8.8092 -1977
19.9045 -6.8143 -8.8087 -1951
19.9172 -6.8281 -8.8107 -1974
19.8895 -6.8186 -8.8094 -1936
19.8655 -6.8101 -8.8094 -1940
19.8705 -6.8218 -8.8104 -1964
19.8932 -6.8298 -8.8097 -1957
19.9195 -6.8388 -8.8104 -1956
19.9040 -6.8428 -8.8099 -1941
19.8807 -6.8348 -8.8104 -1950
19.8877 -6.8473 -8.8099 -1908
19.8740 -6.8523 -8.8102 -1956
19.8402 -6.7343 -8.8399 -1954
19.8067 -6.7326 -8.8304 -1978
19.8185 -6.7458 -8.8292 -1953
19.8100 -6.7528 -8.8244 -1940
19.8025 -6.7601 -8.8274 -1924
19.8455 -6.7748 -8.8357 -1934
19.8577 -6.7788 -8.8304 -1936
19.8502 -6.7858 -8.8114 -1923
19.8357 -6.7808 -8.8157 -1928
19.8290 -6.7786 -8.8234 -1961
19.8207 -6.7758 -8.8307 -1959
19.8120 -6.7826 -8.8109 -1930
19.8315 -6.7893 -8.8089 -1955
19.9265 -6.7341 -8.8247 -1903
19.9180 -6.7313 -8.8317 -1895
19.8900 -6.7318 -8.8474 -1858
19.9050 -6.7368 -8.8434 -1872
19.9145 -6.7401 -8.8367 -1912
19.9250 -6.7436 -8.8307 -1938
19.9097 -6.7478 -8.8307 -1904
19.8992 -6.7443 -8.8369 -1885
19.8987 -6.7443 -8.8474 -1877
19.8770 -6.7368 -8.8487 -1943
19.8907 -6.7513 -8.8409 -1917
19.8920 -6.7518 -8.8307 -1942
19.9157 -6.7598 -8.8304 -1953
19.8970 -6.7633 -8.8274 -1980
19.8862 -6.7596 -8.8334 -1949
19.8802 -6.7576 -8.8414 -1890
19.8630 -6.7518 -8.8447 -1915
19.8777 -6.7661 -8.8449 -1902
19.8842 -6.7681 -8.8369 -1918
19.8922 -6.7708 -8.8297 -1988
19.9132 -6.7781 -8.8282 -1966
19.9097 -6.7868 -8.8152 -1960
19.8987 -6.7831 -8.8209 -1969
19.8937 -6.7816 -8.8297 -1962
19.8837 -6.7781 -8.8359 -1980
19.8735 -6.7746 -8.8419 -1947
19.8640 -6.7811 -8.8224 -1909
19.8747 -6.7848 -8.8164 -1923
19.8872 -6.7891 -8.8112 -1926
19.9807 -6.7918 -8.8212 -1948
19.9702 -6.7973 -8.8099 -1948
19.9692 -6.8071 -8.8094 -1972
19.9432 -6.7983 -8.8087 -1931
19.9307 -6.8038 -8.8087 -1960
19.9575 -6.8128 -8.8097 -1951
19.9825 -6.8213 -8.8097 -1954
19.9680 -6.8261 -8.8099 -1956
19.9440 -6.8178 -8.8099 -1956
19.9322 -6.8238 -8.8102 -1951
19.9560 -6.8318 -8.8099 -1966
19.9815 -6.8406 -8.8102 -1955
19.9855 -6.8513 -8.8084 -1975
19.9632 -6.8438 -8.8094 -1981
19.9385 -6.8353 -8.8094 -1959
19.9417 -6.8463 -8.8094 -1970
19.9270 -6.8508 -8.8092 -1946
20.0512 -6.7958 -8.8179 -1949
20.0442 -6.7936 -8.8257 -1953
20.0155 -6.7936 -8.8204 -1971
20.0275 -6.7978 -8.8147 -1938
20.0407 -6.8023 -8.8097 -1969
20.0482 -6.8146 -8.8077 -1984
20.0255 -6.8068 -8.8084 -1988
20.0065 -6.8003 -8.8109 -1933
19.9940 -6.7963 -8.8162 -1941
19.9917 -6.8048 -8.8087 -1957
20.0170 -6.8133 -8.8089 -1951
20.0390 -6.8208 -8.8077 -1979
20.0405 -6.8313 -8.8084 -1977
20.0167 -6.8233 -8.8087 -1964
19.9925 -6.8151 -8.8089 -1929
20.0055 -6.8293 -8.8089 -1956
20.0287 -6.8373 -8.8084 -1980
20.0382 -6.8501 -8.8084 -1971
20.0132 -6.8416 -8.8082 -1962
19.9937 -6.8348 -8.8104 -1946
20.0037 -6.8483 -8.8092 -1963
19.9675 -6.7286 -8.8409 -1971
19.9562 -6.7346 -8.8332 -1970
19.9892 -6.7553 -8.8312 -1956
19.9695 -6.7486 -8.8332 -1986
19.9447 -6.7503 -8.8287 -1971
19.9545 -6.7536 -8.8219 -1967
19.9875 -6.7646 -8.8259 -1992
19.9735 -6.7696 -8.8267 -1975
19.9370 -6.7571 -8.8214 -1944
19.9365 -6.7571 -8.8319 -1914
19.9357 -6.7666 -8.8287 -1948
19.9737 -6.7796 -8.8344 -1967
19.9715 -6.7886 -8.8279 -1956
19.9592 -6.7843 -8.8334 -1959
19.9400 -6.7778 -8.8357 -1967
19.9377 -6.7863 -8.8282 -1970
19.9420 -6.7878 -8.8194 -1963
19.9515 -6.7911 -8.8127 -1958
20.0387 -6.7333 -8.8472 -1957
19.9945 -6.7283 -8.8364 -1953
20.0155 -6.7353 -8.8347 -1918
20.0445 -6.7543 -8.8214 -1930
20.0440 -6.7543 -8.8319 -1913
20.0100 -6.7428 -8.8277 -1928
19.9980 -6.7388 -8.8329 -1931
19.9995 -6.7393 -8.8444 -1929
19.9917 -6.7466 -8.8382 -1931
19.9940 -6.7473 -8.8284 -1952
20.0152 -6.7546 -8.8269 -1959
20.0267 -6.7583 -8.8209 -1915
20.0397 -6.7628 -8.8159 -1957
20.0350 -6.7708 -8.8189 -1918
20.0205 -6.7658 -8.8234 -1902
19.9995 -6.7588 -8.8249 -1944
20.0062 -6.7711 -8.8234 -1972
20.0515 -6.7863 -8.8324 -1941
20.0300 -6.7886 -8.8302 -1953
19.9965 -6.7773 -8.8262 -2002
19.9942 -6.7866 -8.8327 -1962
20.0060 -6.7903 -8.8269 -1968
19.8562 -6.6718 -8.8417 -1949
19.8292 -6.6728 -8.8389 -1956
19.8520 -6.6803 -8.8382 -1946
19.8467 -6.6878 -8.8302 -1958
19.8312 -6.6826 -8.8339 -1953
19.8140 -6.6768 -8.8372 -1971
19.8002 -6.6821 -8.8394 -1982
19.8160 -6.6873 -8.8357 -2001
19.8370 -6.6943 -8.8342 -1960
19.8540 -6.7003 -8.8312 -1952
19.8505 -6.7086 -8.8342 -1977
19.8265 -6.7003 -8.8342 -1980
19.8082 -6.6943 -8.8369 -1977
19.8227 -6.7091 -8.8389 -1959
19.8497 -6.7181 -8.8404 -1946
19.8425 -6.7251 -8.8439 -1959
19.8255 -6.7193 -8.8472 -1950
19.8070 -6.7228 -8.8359 -1975
19.9252 -6.6661 -8.8109 -1986
19.8960 -6.6658 -8.8027 -1997
19.8652 -6.6653 -8.8189 -2004
19.8727 -6.6678 -8.8114 -1982
19.8845 -6.6718 -8.8059 -1969
19.9200 -6.6838 -8.8109 -1975
19.9135 -6.6911 -8.8242 -1996
19.8937 -6.6846 -8.8262 -1973
19.9060 -6.6886 -8.8424 -1960
19.8865 -6.6821 -8.8444 -1981
19.8837 -6.6911 -8.8414 -1966
19.9087 -6.6993 -8.8417 -1948
19.9150 -6.7016 -8.8337 -1984
19.9202 -6.7033 -8.8252 -2000
19.9180 -6.7118 -8.8404 -1955
19.9072 -6.7083 -8.8464 -1903
19.8920 -6.7131 -8.8372 -1918
19.9130 -6.7201 -8.8357 -1950
19.9250 -6.7241 -8.8302 -1947
19.8992 -6.7251 -8.8342 -1862
19.8845 -6.7201 -8.8384 -1838
19.8442 -6.6196 -8.8234 -1940
19.8547 -6.6231 -8.8172 -1952
19.8517 -6.6318 -8.8137 -1936
19.8387 -6.6276 -8.8187 -1902
19.8425 -6.6286 -8.8312 -1894
19.8112 -6.6281 -8.8357 -1950
19.8367 -6.6363 -8.8362 -1936
19.8400 -6.6376 -8.8267 -1877
19.8432 -6.6386 -8.8174 -1913
19.8602 -6.6538 -8.8192 -1975
19.8470 -6.6493 -8.8347 -1941
19.8302 -6.6536 -8.8247 -1919
19.8615 -6.6641 -8.8279 -1975
19.8992 -6.6188 -8.8137 -1971
19.9175 -6.6251 -8.8109 -1984
19.8962 -6.6273 -8.8074 -1971
19.8835 -6.6231 -8.8124 -1970
19.8767 -6.6208 -8.8202 -1988
19.8762 -6.6303 -8.8162 -1971
19.8827 -6.6326 -8.8082 -1959
19.8995 -6.6381 -8.8049 -1977
19.9042 -6.6493 -8.8049 -1958
19.8820 -6.6418 -8.8057 -1965
19.8722 -6.6386 -8.8122 -2000
19.8680 -6.6468 -8.8177 -1993
19.8777 -6.6501 -8.8114 -1984
19.8847 -6.6526 -8.8037 -1952
19.8802 -6.6606 -8.8064 -1968
19.8680 -6.6563 -8.8119 -1999
19.8635 -6.6548 -8.8314 -1950
20.0370 -6.6648 -8.8529 -1976
20.0515 -6.6791 -8.8547 -1981
19.9820 -6.7141 -8.8329 -1982
19.9395 -6.6998 -8.8249 -1984
19.9440 -6.7113 -8.8249 -1988
19.9287 -6.7153 -8.8344 -1971
20.0235 -6.6793 -8.8489 -1952
20.0245 -6.6893 -8.8472 -1969
20.0015 -6.6916 -8.8339 -1977
20.0435 -6.7056 -8.8417 -1958
20.0200 -6.7073 -8.8362 -1954
19.9905 -6.6976 -8.8337 -1951
19.9945 -6.7086 -8.8329 -1974
20.0240 -6.7186 -8.8352 -1990
19.9612 -6.6296 -8.8259 -1988
19.9782 -6.6546 -8.8329 -1960
20.0322 -6.6533 -8.8467 -1986
20.0920 -6.7413 -8.8544 -1962
20.1092 -6.7958 -8.8192 -1944
20.1052 -6.7946 -8.8282 -1942
20.0697 -6.7926 -8.8297 -1971
20.0787 -6.7956 -8.8227 -1930
20.0842 -6.7973 -8.8142 -1917
20.0925 -6.8003 -8.8069 -1933
20.1117 -6.8068 -8.8047 -1900
20.1147 -6.8173 -8.8027 -1927
20.0912 -6.8093 -8.8032 -1946
20.0755 -6.8041 -8.8069 -1950
20.0587 -6.7983 -8.8104 -1949
20.0612 -6.8091 -8.8079 -1949
20.0837 -6.8168 -8.8069 -1948
20.1035 -6.8236 -8.8047 -1962
20.1140 -6.8368 -8.8042 -1964
20.0925 -6.8296 -8.8054 -1954
20.0700 -6.8221 -8.8064 -1951
20.0595 -6.8278 -8.8057 -1975
20.0832 -6.8358 -8.8052 -1959
20.1057 -6.8436 -8.8042 -1959
20.1042 -6.8531 -8.8039 -1964
20.0815 -6.8453 -8.8049 -1971
20.0610 -6.8383 -8.8067 -1977
20.0545 -6.8461 -8.8087 -1964
20.0730 -6.8523 -8.8059 -1955
20.1787 -6.7996 -8.8157 -1936
20.1692 -6.7963 -8.8222 -1943
20.1647 -6.7948 -8.8312 -1956
20.1565 -6.7921 -8.8384 -1961
20.1285 -6.7928 -8.8329 -1952
20.1352 -6.7951 -8.8252 -1938
20.1405 -6.7968 -8.8164 -1925
20.1470 -6.7991 -8.8084 -1921
20.1580 -6.8028 -8.8024 -1921
20.1757 -6.8088 -8.7992 -1935
20.1627 -6.8138 -8.7992 -1951
20.1430 -6.8073 -8.8014 -1937
20.1257 -6.8016 -8.8047 -1893
20.1187 -6.7991 -8.8124 -1905
20.1287 -6.8126 -8.8012 -1931
20.1487 -6.8193 -8.7989 -1944
20.1697 -6.8263 -8.7972 -1960
20.1795 -6.8393 -8.7984 -1969
20.1537 -6.8306 -8.7979 -1968
20.1357 -6.8246 -8.8009 -1959
20.1240 -6.8303 -8.8024 -1959
20.1465 -6.8381 -8.8017 -1962
20.1637 -6.8441 -8.7982 -1970
20.1577 -6.8518 -8.8017 -1965
20.1342 -6.8438 -8.8022 -1963
20.1262 -6.8506 -8.8022 -1962
20.0890 -6.7306 -8.8342 -1964
20.0920 -6.7316 -8.8462 -1907
20.0925 -6.7416 -8.8437 -1934
20.1110 -6.7478 -8.8409 -1933
20.1162 -6.7593 -8.8269 -1973
20.0832 -6.7481 -8.8234 -1961
20.0820 -6.7476 -8.8337 -1954
20.0742 -6.7451 -8.8412 -1939
20.0590 -6.7401 -8.8454 -1968
20.0595 -6.7501 -8.8432 -1947
20.0622 -6.7511 -8.8334 -1932
20.0732 -6.7548 -8.8274 -1956
20.0940 -6.7616 -8.8257 -1984
20.0565 -6.7586 -8.8159 -1975
20.0785 -6.7758 -8.8219 -1971
20.0732 -6.7838 -8.8249 -1955
20.1792 -6.7411 -8.8179 -1954
20.1697 -6.7381 -8.8247 -1949
20.1510 -6.7318 -8.8272 -1952
20.1482 -6.7308 -8.8369 -1946
20.1300 -6.7346 -8.8362 -1963
20.1340 -6.7358 -8.8272 -1980
20.1622 -6.7453 -8.8287 -1981
20.1730 -6.7488 -8.8224 -1954
20.1767 -6.7598 -8.8187 -1945
20.1705 -6.7578 -8.8267 -1952
20.1465 -6.7496 -8.8269 -2002
20.1217 -6.7413 -8.8269 -1977
20.1302 -6.7443 -8.8414 -1970
20.1192 -6.7506 -8.8337 -1951
20.1290 -6.7538 -8.8272 -1993
20.1627 -6.7651 -8.8312 -1989
20.1760 -6.7696 -8.8262 -1923
20.1797 -6.7708 -8.8169 -1986
20.1787 -6.7801 -8.8214 -1923
20.1757 -6.7791 -8.8312 -1929
20.1402 -6.7673 -8.8267 -1982
20.1315 -6.7743 -8.8314 -2001
20.1492 -6.7803 -8.8282 -1982
20.1770 -6.7896 -8.8294 -1957
20.1302 -6.7833 -8.8377 -1971
20.2420 -6.8016 -8.8164 -1946
20.2145 -6.7923 -8.8152 -1955
20.1892 -6.7938 -8.8239 -1947
