1599
12.5674 43.4006 -8.6749 -1914
12.5819 43.4501 -8.6747 -1895
12.5849 43.4279 -8.6679 -1906
12.5929 43.4214 -8.6704 -1919
12.6027 43.4219 -8.6742 -1919
12.4872 43.4696 -8.6724 -1929
12.5037 43.4906 -8.6677 -1947
12.5297 43.4791 -8.6712 -1938
12.5449 43.4961 -8.6747 -1917
12.5577 43.5069 -8.6739 -1941
12.5564 43.4659 -8.6729 -1912
12.5684 43.4751 -8.6682 -1933
12.5837 43.4914 -8.6709 -1931
12.6004 43.5139 -8.6772 -1921
12.6002 43.4804 -8.6684 -1926
12.6177 43.4356 -8.6789 -1915
12.6242 43.4249 -8.6744 -1939
12.6294 43.4084 -8.6702 -1942
12.6437 43.4569 -8.6697 -1948
12.6504 43.4461 -8.6704 -1944
12.6507 43.4136 -8.6757 -1951
12.6627 43.4541 -8.6737 -1954
12.6674 43.4354 -8.6684 -1955
12.6749 43.4281 -8.6699 -1944
12.6859 43.4309 -8.6707 -1940
12.7017 43.4499 -8.6722 -1952
12.7082 43.4399 -8.6764 -1959
12.7124 43.4186 -8.6754 -1957
12.7337 43.4584 -8.6694 -1981
12.7189 43.4076 -8.6697 -1956
12.7292 43.4081 -8.6692 -1976
12.6084 43.4744 -8.6709 -1926
12.6157 43.4666 -8.6727 -1920
12.6354 43.4969 -8.6804 -1926
12.6527 43.5229 -8.6747 -1948
12.6362 43.4659 -8.6729 -1926
12.6669 43.5029 -8.6717 -1947
12.6832 43.4891 -8.6694 -1959
12.6914 43.4851 -8.6712 -1949
12.7024 43.4866 -8.6719 -1934
12.7217 43.5176 -8.6757 -1950
12.7287 43.4736 -8.6762 -1961
12.4022 43.5569 -8.6237 -1899
12.4369 43.5716 -8.6522 -1861
12.4542 43.5621 -8.6472 -1950
12.4739 43.5271 -8.6712 -1925
12.4362 43.6386 -8.6449 -1858
12.4359 43.6041 -8.6527 -1876
12.4567 43.7114 -8.6492 -1828
12.4587 43.6839 -8.6587 -1827
12.4652 43.6706 -8.6617 -1788
12.4482 43.7184 -8.6457 -1914
12.4939 43.5626 -8.6787 -1924
12.5047 43.5649 -8.6792 -1941
12.5149 43.5661 -8.6814 -1922
12.5249 43.5311 -8.6714 -1942
12.5367 43.5376 -8.6762 -1925
12.4872 43.6081 -8.6577 -1962
12.5934 43.5941 -8.6887 -1975
12.6049 43.6009 -8.6829 -1967
12.6512 43.5886 -8.6862 -1943
12.6654 43.5321 -8.6747 -1952
12.7342 43.5279 -8.6837 -1969
12.6289 43.6476 -8.6919 -1940
12.6642 43.5959 -8.6894 -1945
12.7039 43.5959 -8.6919 -1950
12.6019 43.6941 -8.7042 -1964
12.5952 43.7401 -8.7064 -1907
12.5227 43.6971 -8.6947 -1895
12.5354 43.7079 -8.6974 -1835
12.5429 43.6984 -8.6959 -1827
12.5477 43.6806 -8.6939 -1925
12.5529 43.6621 -8.6917 -1926
12.5782 43.7159 -8.6979 -1902
12.5819 43.6606 -8.6972 -1951
12.4809 43.7261 -8.6624 -1859
12.5459 43.7784 -8.7007 -1913
12.5494 43.7564 -8.6967 -1898
12.5559 43.7441 -8.6949 -1862
12.5632 43.7344 -8.6944 -1853
12.5807 43.7586 -8.6904 -1956
12.5739 43.7351 -8.6959 -1880
12.5869 43.7461 -8.6934 -1896
12.6019 43.7641 -8.7012 -1888
12.6149 43.7049 -8.7029 -1978
12.6674 43.7124 -8.7047 -1911
12.6104 43.7596 -8.7069 -1922
12.6364 43.7796 -8.7077 -1966
12.6292 43.7179 -8.7034 -1985
12.6867 43.7441 -8.7144 -1912
12.7144 43.7351 -8.7072 -1954
12.6142 43.7721 -8.6992 -1906
12.6394 43.7201 -8.6967 -1978
12.5817 43.8331 -8.7024 -1924
12.5684 43.8919 -8.7037 -1876
12.5792 43.8949 -8.7137 -1892
12.5802 43.8631 -8.7079 -1894
12.5924 43.9059 -8.7062 -1863
12.6017 43.9031 -8.7064 -1872
12.4812 43.7971 -8.6562 -1873
12.5004 43.8304 -8.6777 -1919
12.5074 43.7834 -8.6789 -1911
12.5784 43.7869 -8.6947 -1929
12.5992 43.7886 -8.6917 -1908
12.4937 43.8789 -8.6674 -1902
12.5344 43.8786 -8.6877 -1925
12.5387 43.8574 -8.6954 -1923
12.5457 43.8481 -8.6979 -1898
12.6064 43.8484 -8.6982 -1927
12.6397 43.8251 -8.7204 -1926
12.6597 43.8236 -8.7149 -1929
12.6717 43.8321 -8.7087 -1916
12.6722 43.7971 -8.7117 -1939
12.6844 43.8039 -8.7247 -1896
12.6947 43.8399 -8.7217 -1908
12.7014 43.8291 -8.7179 -1900
12.6089 43.8931 -8.7057 -1908
12.6512 43.9009 -8.7144 -1905
12.6487 43.8561 -8.7164 -1923
12.6594 43.8591 -8.7134 -1921
12.6972 43.8839 -8.7189 -1897
12.7139 43.9061 -8.7244 -1878
12.7202 43.8944 -8.7209 -1887
12.7172 43.8489 -8.7247 -1870
12.7249 43.8759 -8.7197 -1827
12.7277 43.8851 -8.7112 -1838
12.7329 43.8699 -8.7202 -1782
12.7287 43.8554 -8.7284 -1836
12.6109 43.7954 -8.6977 -1909
12.5674 43.9236 -8.7029 -1864
12.5919 43.9391 -8.7022 -1872
12.5837 43.9096 -8.7064 -1884
12.5169 43.9599 -8.6734 -1825
12.5212 43.9376 -8.6739 -1890
12.5282 43.9616 -8.6684 -1856
12.5379 43.9614 -8.6742 -1850
12.5324 43.9426 -8.6802 -1870
12.5247 43.9151 -8.6847 -1887
12.5327 43.9074 -8.6884 -1881
12.5417 43.9386 -8.6844 -1892
12.5474 43.9589 -8.6784 -1912
12.5507 43.9699 -8.6707 -1931
12.5587 43.9629 -8.6744 -1926
12.5559 43.9534 -8.6824 -1861
12.5489 43.9291 -8.6877 -1897
12.5592 43.9289 -8.6997 -1871
12.5642 43.9466 -8.6932 -1815
12.5657 43.9519 -8.6839 -1834
12.5667 43.9554 -8.6747 -1874
12.5787 43.9629 -8.6707 -1834
12.5762 43.9541 -8.6789 -1854
12.5747 43.9489 -8.6879 -1783
12.5729 43.9429 -8.6967 -1835
12.5799 43.9319 -8.7014 -1865
12.5839 43.9456 -8.6939 -1842
12.5842 43.9466 -8.6839 -1879
12.5849 43.9494 -8.6742 -1858
12.5879 43.9599 -8.6662 -1833
12.5967 43.9551 -8.6754 -1864
12.5964 43.9546 -8.6852 -1839
12.5937 43.9449 -8.6932 -1857
12.5974 43.9239 -8.6999 -1880
12.6042 43.9469 -8.6947 -1874
12.6044 43.9481 -8.6849 -1854
12.6054 43.9516 -8.6757 -1862
12.5362 44.0276 -8.6672 -1929
12.5209 43.9739 -8.6664 -1923
12.5377 43.9949 -8.6649 -1918
12.5452 43.9874 -8.6694 -1922
12.5607 44.0051 -8.6677 -1933
12.5719 44.0096 -8.6637 -1930
12.5609 43.9709 -8.6659 -1920
12.5742 43.9816 -8.6697 -1918
12.5887 44.0321 -8.6694 -1924
12.5879 43.9959 -8.6674 -1921
12.5962 43.9886 -8.6619 -1917
12.6047 43.9834 -8.6709 -1906
12.6107 43.9341 -8.7024 -1872
12.6179 43.9251 -8.7022 -1901
12.6287 43.9254 -8.7032 -1884
12.6392 43.9276 -8.7089 -1874
12.6509 43.9344 -8.7052 -1878
12.6487 43.9259 -8.7134 -1857
12.6604 43.9329 -8.7104 -1857
12.6704 43.9314 -8.7112 -1839
12.6674 43.9214 -8.7194 -1831
12.6722 43.9374 -8.7022 -1868
12.6764 43.9176 -8.7154 -1898
12.6807 43.9324 -8.7087 -1884
12.6914 43.9334 -8.7069 -1866
12.6894 43.9261 -8.7154 -1881
12.6847 43.9101 -8.7222 -1906
12.6954 43.9144 -8.7147 -1890
12.6999 43.9299 -8.7077 -1902
12.7102 43.9289 -8.7077 -1887
12.7082 43.9219 -8.7164 -1874
12.7177 43.9186 -8.7169 -1864
12.7199 43.9266 -8.7084 -1823
12.7282 43.9219 -8.7064 -1886
12.7262 43.9151 -8.7149 -1864
12.6099 43.9669 -8.6687 -1899
12.6152 43.9499 -8.6757 -1900
12.6152 43.9501 -8.6857 -1875
12.6114 43.9374 -8.6929 -1859
12.6224 43.9409 -8.6954 -1870
12.6247 43.9479 -8.6869 -1880
12.6262 43.9536 -8.6782 -1879
12.6282 43.9604 -8.6697 -1910
12.6384 43.9594 -8.6704 -1896
12.6349 43.9474 -8.6779 -1878
12.6334 43.9421 -8.6867 -1875
12.6322 43.9376 -8.6957 -1872
12.6412 43.9351 -8.7002 -1874
12.6434 43.9426 -8.6917 -1873
12.6442 43.9456 -8.6822 -1887
12.6459 43.9511 -8.6732 -1883
12.6514 43.9701 -8.6669 -1920
12.6587 43.9606 -8.6709 -1922
12.6547 43.9474 -8.6782 -1862
12.6542 43.9456 -8.6877 -1851
12.6524 43.9391 -8.6962 -1873
12.6604 43.9329 -8.7004 -1866
12.6622 43.9386 -8.6914 -1881
12.6634 43.9436 -8.6822 -1882
12.6657 43.9516 -8.6737 -1891
12.6764 43.9521 -8.6749 -1894
12.6752 43.9484 -8.6842 -1882
12.6724 43.9384 -8.6922 -1878
12.6804 43.9321 -8.6992 -1899
12.6814 43.9356 -8.6904 -1895
12.6852 43.9489 -8.6832 -1895
12.6862 43.9516 -8.6739 -1888
12.6957 43.9481 -8.6797 -1881
12.6939 43.9419 -8.6884 -1905
12.6922 43.9359 -8.6974 -1880
12.7012 43.9341 -8.6984 -1881
12.7027 43.9391 -8.6892 -1886
12.7039 43.9436 -8.6799 -1898
12.7057 43.9496 -8.6709 -1873
12.7182 43.9564 -8.6734 -1920
12.7144 43.9431 -8.6804 -1927
12.7127 43.9374 -8.6894 -1914
12.7119 43.9349 -8.6989 -1902
12.7209 43.9301 -8.6992 -1874
12.7232 43.9384 -8.6907 -1909
12.7239 43.9406 -8.6812 -1909
12.7284 43.9556 -8.6739 -1918
12.7342 43.9426 -8.6707 -1928
12.7342 43.9421 -8.6804 -1934
12.7312 43.9324 -8.6884 -1903
12.7309 43.9309 -8.6982 -1882
12.6184 44.0316 -8.6707 -1915
12.6239 44.0159 -8.6682 -1911
12.6354 44.0204 -8.6699 -1912
12.6214 43.9719 -8.6702 -1926
12.6419 44.0089 -8.6694 -1909
12.6482 43.9931 -8.6672 -1924
12.6669 44.0241 -8.6677 -1905
12.6734 44.0124 -8.6712 -1905
12.6767 43.9896 -8.6712 -1922
12.6892 43.9964 -8.6737 -1921
12.6979 43.9924 -8.6719 -1919
12.7079 43.9911 -8.6784 -1900
12.7164 43.9869 -8.6682 -1911
12.7319 44.0039 -8.6729 -1919
12.9414 43.0801 -8.5814 -1985
12.9409 43.0786 -8.5909 -1984
12.9407 43.0784 -8.6007 -1984
12.9387 43.0711 -8.6092 -1982
12.9382 43.0699 -8.6187 -1985
12.9342 43.0229 -8.6047 -1984
12.9374 43.0334 -8.5967 -1986
12.9357 43.0274 -8.5852 -1986
12.9372 43.0326 -8.5762 -1985
12.9384 43.1029 -8.6242 -1980
12.9417 43.1139 -8.6164 -1980
12.9449 43.1244 -8.6084 -1983
12.9417 43.1136 -8.5964 -1985
12.9407 43.1104 -8.5857 -1986
12.9432 43.1184 -8.5772 -1983
12.9157 43.1936 -8.6444 -1988
12.9394 43.1734 -8.6382 -1980
12.9459 43.1949 -8.6327 -1980
12.9487 43.2036 -8.6244 -1983
12.9492 43.2056 -8.6147 -1981
12.9472 43.1664 -8.5759 -1983
12.9494 43.1734 -8.5869 -1983
12.9434 43.1541 -8.5927 -1986
12.9469 43.1656 -8.6047 -1982
12.9434 43.1541 -8.6122 -1980
12.9457 43.1614 -8.6234 -1981
12.9427 43.1514 -8.6314 -1981
12.8989 43.2721 -8.6517 -1989
12.8884 43.2364 -8.6544 -1998
12.9032 43.2521 -8.6512 -2003
12.9129 43.2524 -8.6544 -2004
12.9199 43.2419 -8.6492 -2008
12.9254 43.2264 -8.6412 -1983
12.9317 43.2129 -8.6444 -1987
12.9414 43.2459 -8.6409 -1992
12.9409 43.2124 -8.6394 -1983
12.9342 43.2559 -8.6372 -1985
12.9522 43.2494 -8.5782 -1984
12.9574 43.2679 -8.5914 -1983
12.9577 43.2679 -8.6012 -1983
12.9524 43.2511 -8.6077 -1980
12.9527 43.2511 -8.6174 -1982
12.9494 43.2406 -8.6252 -1981
12.9439 43.2226 -8.6314 -1983
12.9502 43.2091 -8.6052 -1980
12.9524 43.2166 -8.5967 -1984
12.9524 43.2164 -8.5864 -1984
12.9524 43.2161 -8.5764 -1982
12.9109 43.0774 -8.5187 -1986
12.9144 43.0576 -8.5157 -1992
12.9119 43.0486 -8.5237 -1989
12.9122 43.0499 -8.5044 -2007
12.9249 43.0579 -8.5057 -2019
12.9314 43.0799 -8.5497 -1986
12.9397 43.0741 -8.5604 -1980
12.9359 43.0286 -8.5652 -1980
12.9307 43.0446 -8.5054 -2021
12.9189 43.1389 -8.5174 -1997
12.9194 43.1409 -8.5079 -2005
12.9137 43.0871 -8.5107 -1997
12.9167 43.0974 -8.5029 -2001
12.9444 43.1226 -8.5682 -1979
12.9437 43.0876 -8.5729 -1986
12.9269 43.1316 -8.4999 -2009
12.9237 43.1861 -8.5194 -1990
12.9234 43.1854 -8.5097 -1998
12.9282 43.1694 -8.5332 -1994
12.9409 43.1779 -8.5487 -1986
12.9409 43.1456 -8.5524 -1984
12.9447 43.1581 -8.5647 -1984
12.9262 43.1946 -8.5014 -2018
12.9309 43.1794 -8.5054 -2023
12.9294 43.2401 -8.5159 -1991
12.9372 43.2656 -8.5312 -1989
12.9329 43.2169 -8.5352 -1988
12.9524 43.2511 -8.5592 -1988
12.9542 43.2566 -8.5699 -1984
12.9524 43.2164 -8.5662 -1983
12.9329 43.2514 -8.4977 -2021
12.9257 43.2274 -8.5032 -1998
12.7439 43.3906 -8.6672 -1972
12.7692 43.3744 -8.6514 -1946
12.7627 43.3526 -8.6564 -1939
12.7597 43.3421 -8.6634 -1927
12.7584 43.3379 -8.6719 -1932
12.7699 43.3429 -8.6642 -1944
12.7724 43.3511 -8.6554 -1946
12.7809 43.3801 -8.6512 -1981
12.7919 43.3844 -8.6519 -1988
12.7842 43.3576 -8.6562 -1952
12.7812 43.3469 -8.6634 -1935
12.7799 43.3424 -8.6714 -1936
12.7887 43.3404 -8.6644 -1938
12.7917 43.3504 -8.6564 -1939
12.7987 43.3741 -8.6509 -1998
12.8147 43.3929 -8.6684 -2009
12.8014 43.3476 -8.6692 -1963
12.8127 43.3536 -8.6684 -1973
12.8194 43.3759 -8.6624 -1984
12.8264 43.3639 -8.6489 -1989
12.8262 43.3631 -8.6589 -1984
12.8254 43.3606 -8.6684 -1986
12.8357 43.3624 -8.6769 -1981
12.8364 43.3644 -8.6672 -1974
12.8364 43.3646 -8.6572 -1984
12.8354 43.3609 -8.6462 -1975
12.8439 43.3901 -8.6417 -1978
12.8439 43.3554 -8.6397 -1978
12.8524 43.3836 -8.6552 -1979
12.8477 43.3681 -8.6617 -1993
12.8459 43.3624 -8.6702 -1989
12.8489 43.3394 -8.6677 -2000
12.8539 43.3569 -8.6612 -1989
12.8562 43.3636 -8.6524 -1993
12.8609 43.3446 -8.6727 -1996
12.8472 43.3661 -8.6319 -1977
12.8612 43.3806 -8.6357 -1977
12.8574 43.3679 -8.6232 -1976
12.8882 43.3034 -8.6574 -1981
12.8902 43.3096 -8.6684 -1963
12.8912 43.2804 -8.6542 -1983
12.9052 43.3276 -8.6537 -1985
12.9107 43.3111 -8.6497 -2001
12.9172 43.2989 -8.6504 -2001
12.9229 43.2856 -8.6512 -1999
12.9259 43.3281 -8.6464 -1986
12.9317 43.3151 -8.6474 -1984
12.9329 43.2859 -8.6479 -1996
12.9409 43.3121 -8.6429 -1986
12.9552 43.3264 -8.5929 -1985
12.9557 43.3274 -8.6222 -1982
12.9527 43.3171 -8.6299 -1981
12.9447 43.2906 -8.6344 -1979
12.9499 43.2744 -8.6367 -1981
12.9514 43.2794 -8.6274 -1977
12.9549 43.2909 -8.6197 -1982
12.9539 43.2879 -8.6089 -1982
12.9552 43.2919 -8.5999 -1983
12.9574 43.2989 -8.5914 -1983
12.9577 43.2999 -8.5814 -1985
12.8757 43.3944 -8.6519 -1990
12.8709 43.3781 -8.6589 -1987
12.8662 43.3621 -8.6659 -1983
12.8722 43.3509 -8.6682 -1992
12.8764 43.3659 -8.6612 -1976
12.8802 43.3784 -8.6534 -1992
12.8809 43.3809 -8.6437 -1986
12.8877 43.3686 -8.6497 -1982
12.8844 43.3576 -8.6574 -1978
12.8809 43.3454 -8.6649 -1993
12.8912 43.3461 -8.6724 -1989
12.8899 43.3424 -8.6614 -1973
12.9029 43.3859 -8.6599 -1976
12.8997 43.3751 -8.6474 -1986
12.9079 43.3694 -8.6409 -1983
12.9102 43.3766 -8.6524 -1984
12.9019 43.3489 -8.6567 -1982
12.9162 43.3646 -8.6509 -2002
12.9189 43.3391 -8.6454 -1991
12.8694 43.3726 -8.6279 -1979
12.8654 43.3599 -8.6352 -1979
12.8734 43.3556 -8.6282 -1981
12.8934 43.3874 -8.6237 -1995
12.8884 43.3706 -8.6302 -1981
12.8934 43.3539 -8.6329 -1984
12.9312 43.3801 -8.6437 -1987
12.9369 43.3646 -8.6434 -1983
12.9472 43.3991 -8.6402 -1985
12.9532 43.3866 -8.6422 -1982
12.9404 43.3444 -8.6434 -1986
12.9517 43.3484 -8.6399 -1979
12.9547 43.3581 -8.6317 -1983
12.9589 43.3729 -8.6244 -1982
12.9652 43.3936 -8.6187 -1983
12.9614 43.3814 -8.6062 -1988
12.9594 43.3741 -8.5949 -1985
12.9637 43.3889 -8.5779 -1981
12.9587 43.3379 -8.5757 -1984
12.9622 43.3496 -8.5879 -1985
12.9599 43.3421 -8.6059 -1985
12.9592 43.3394 -8.6149 -1982
12.7442 43.4591 -8.6692 -1977
12.7512 43.4484 -8.6669 -1981
12.7389 43.4071 -8.6689 -1986
12.7502 43.4116 -8.6609 -1967
12.7619 43.4516 -8.6584 -1941
12.7647 43.4276 -8.6744 -1960
12.7567 43.3999 -8.6784 -1959
12.7674 43.4011 -8.6749 -1967
12.7774 43.4354 -8.6712 -1963
12.7907 43.4476 -8.6469 -1973
12.7794 43.4094 -8.6489 -1955
12.7932 43.4216 -8.6497 -1995
12.8007 43.4134 -8.6477 -2016
12.8154 43.4314 -8.6522 -2017
12.8382 43.4391 -8.6647 -1969
12.8427 43.4549 -8.6577 -1981
12.8497 43.4421 -8.6449 -1981
12.8384 43.4041 -8.6472 -1985
12.8492 43.4074 -8.6349 -1969
12.8519 43.4171 -8.6269 -1973
12.8542 43.4241 -8.6182 -1977
12.8602 43.4104 -8.6107 -1985
12.8574 43.4009 -8.6189 -1974
12.8582 43.4041 -8.6297 -1977
12.7614 43.5179 -8.6707 -1965
12.7572 43.4686 -8.6609 -1957
12.7764 43.4671 -8.6724 -1953
12.8099 43.5134 -8.6507 -1996
12.8062 43.4661 -8.6487 -2016
12.8359 43.4649 -8.6729 -1984
12.8537 43.4916 -8.6547 -1971
12.8617 43.5181 -8.6497 -1975
12.8599 43.4766 -8.6322 -1956
12.8679 43.4034 -8.6504 -1973
12.9009 43.4131 -8.6487 -1977
12.8697 43.4094 -8.6214 -1977
12.8704 43.4116 -8.6119 -1971
12.8764 43.4326 -8.6059 -1999
12.8797 43.4076 -8.6252 -1977
12.8934 43.4224 -8.6312 -1986
12.9332 43.4546 -8.6482 -1991
12.9302 43.4114 -8.6502 -1988
12.9442 43.4584 -8.6492 -1986
12.9534 43.4546 -8.6384 -1981
12.9442 43.4239 -8.6424 -1984
12.9597 43.4409 -8.6384 -1985
12.9652 43.4591 -8.6319 -1985
12.9657 43.4611 -8.6222 -1985
12.9649 43.4589 -8.5914 -1988
12.9664 43.4314 -8.5817 -1985
12.9672 43.4339 -8.5922 -1986
12.9642 43.4241 -8.6004 -1987
12.9632 43.4204 -8.6094 -1986
12.9644 43.4244 -8.6202 -1984
12.9644 43.4246 -8.6302 -1985
12.9592 43.4071 -8.6364 -1984
12.9672 43.4006 -8.5902 -1986
12.8649 43.4936 -8.6454 -1975
12.8987 43.4709 -8.6279 -1988
12.9269 43.4664 -8.6449 -1995
12.9507 43.5134 -8.6497 -1996
12.9567 43.5001 -8.6472 -1986
12.9642 43.5254 -8.6419 -1981
12.9732 43.5206 -8.5917 -1985
12.9742 43.5244 -8.6024 -1985
12.9737 43.5231 -8.6119 -1986
12.9729 43.5199 -8.6214 -1980
12.9672 43.5009 -8.6277 -1981
12.9642 43.4909 -8.6357 -1981
12.9667 43.4644 -8.6127 -1986
12.9697 43.4744 -8.6047 -1984
12.9679 43.4686 -8.5834 -1984
12.9694 43.4736 -8.5744 -1986
12.9327 43.3179 -8.5189 -1993
12.9302 43.2764 -8.5262 -1992
12.9302 43.2761 -8.5162 -1989
12.9572 43.2984 -8.5712 -1985
12.9559 43.2941 -8.5604 -1984
12.9364 43.3306 -8.5014 -2009
12.9324 43.3171 -8.5087 -1994
12.9317 43.2811 -8.5072 -2001
12.9374 43.3004 -8.5009 -2016
12.9404 43.2766 -8.4924 -2020
12.9329 43.3509 -8.5207 -1995
12.9334 43.3526 -8.5109 -1998
12.9389 43.3391 -8.5332 -1990
12.9649 43.3931 -8.5687 -1981
12.9577 43.3686 -8.5542 -1988
12.9587 43.3371 -8.5557 -1982
12.9609 43.3456 -8.5674 -1984
12.9424 43.3829 -8.5069 -2015
12.9537 43.3549 -8.5014 -2020
12.9424 43.4529 -8.5174 -1995
12.9424 43.4179 -8.5217 -1993
12.9569 43.4319 -8.5464 -1991
12.9619 43.4164 -8.5584 -1981
12.9684 43.4379 -8.5727 -1983
12.9389 43.4411 -8.5052 -2002
12.9507 43.4459 -8.4974 -2022
12.9437 43.4221 -8.5027 -2016
12.9412 43.4134 -8.5109 -2003
12.9582 43.4354 -8.4972 -2023
12.9447 43.4924 -8.5147 -2001
12.9429 43.4864 -8.5234 -1994
12.9507 43.5129 -8.5387 -1990
12.9457 43.4636 -8.5294 -1992
12.9689 43.5069 -8.5492 -1988
12.9744 43.5251 -8.5627 -1981
12.9729 43.5201 -8.5717 -1984
12.9679 43.4689 -8.5637 -1984
12.9459 43.4646 -8.4999 -2019
13.2209 43.3769 -8.6814 -1977
13.2224 43.4121 -8.6864 -1969
13.2339 43.4191 -8.6797 -1973
13.2559 43.3914 -8.6804 -1968
13.2432 43.3496 -8.6822 -1979
13.2654 43.3889 -8.6854 -1959
13.2959 43.3909 -8.6872 -1972
13.3084 43.3989 -8.6914 -1973
13.3257 43.3896 -8.6899 -1965
13.3687 43.3971 -8.6922 -1962
13.3972 43.3916 -8.6929 -1972
13.3649 43.4841 -8.7072 -1955
13.2442 43.4164 -8.6939 -1970
13.2522 43.4114 -8.6932 -1975
13.2919 43.4429 -8.6959 -1963
13.2894 43.4021 -8.6909 -1972
13.3284 43.4304 -8.6957 -1976
13.2449 43.5209 -8.6982 -1975
13.2869 43.4931 -8.6909 -1964
13.2887 43.4646 -8.6904 -1961
13.3199 43.5011 -8.7007 -1968
13.3239 43.4824 -8.6954 -1973
13.3504 43.4706 -8.6959 -1964
13.4487 43.4274 -8.7017 -1957
13.3739 43.4801 -8.7087 -1969
13.3939 43.5124 -8.7084 -1963
13.4054 43.4834 -8.7104 -1952
13.4812 43.5019 -8.7132 -1940
13.4922 43.5024 -8.7127 -1944
13.3982 43.4284 -8.7009 -1960
13.4142 43.4156 -8.6987 -1968
13.5084 43.5236 -8.7134 -1934
12.7934 43.5594 -8.6692 -1953
12.8169 43.5691 -8.6872 -1976
12.8449 43.5636 -8.6674 -2011
12.8542 43.5264 -8.6757 -1979
12.7729 43.6249 -8.6962 -1938
12.7767 43.6049 -8.6879 -1939
12.8007 43.6174 -8.6802 -1943
12.8429 43.6254 -8.6632 -1994
12.8559 43.6349 -8.6724 -1963
12.8854 43.5304 -8.6292 -1996
12.9319 43.5521 -8.6464 -1990
12.9527 43.5869 -8.6432 -1988
12.9407 43.5466 -8.6452 -1992
12.9497 43.5429 -8.6499 -1983
12.9577 43.5699 -8.6452 -1984
12.9672 43.5686 -8.6407 -1982
12.9554 43.5294 -8.6429 -1985
12.9719 43.5841 -8.6337 -1977
12.9692 43.5421 -8.6349 -1983
12.9747 43.5609 -8.6284 -1980
12.9727 43.5541 -8.6169 -1981
12.9784 43.5734 -8.6104 -1984
12.9747 43.5611 -8.5979 -1981
12.9754 43.5634 -8.5884 -1984
12.9762 43.5654 -8.5792 -1980
12.9777 43.5364 -8.5849 -1986
12.8789 43.6461 -8.6847 -1953
12.8754 43.5984 -8.6804 -1967
12.8972 43.6031 -8.6474 -1987
12.9299 43.6456 -8.6472 -2002
12.9437 43.6231 -8.6484 -1987
12.9497 43.6119 -8.6479 -1981
12.9632 43.6221 -8.6402 -1984
12.9682 43.6049 -8.6422 -1980
12.9762 43.6316 -8.6374 -1978
12.9777 43.6369 -8.6284 -1981
12.9799 43.6441 -8.6199 -1980
12.9794 43.6426 -8.6099 -1978
12.9824 43.6529 -8.5927 -1980
12.9819 43.6511 -8.5824 -1982
12.9819 43.6181 -8.5794 -1986
12.9789 43.6081 -8.5874 -1981
12.9767 43.5999 -8.5962 -1984
12.9779 43.6046 -8.6072 -1982
12.9782 43.6049 -8.6174 -1980
12.9779 43.6046 -8.6277 -1984
12.7629 43.6939 -8.7032 -1936
12.7794 43.6831 -8.7047 -1942
12.7369 43.7429 -8.7097 -1897
12.7477 43.7459 -8.7117 -1881
12.7687 43.7496 -8.7032 -1936
12.7812 43.7564 -8.7057 -1965
12.7814 43.7221 -8.7062 -1964
12.7909 43.7549 -8.7024 -1964
12.7979 43.7459 -8.7072 -1941
12.8559 43.7384 -8.7167 -1926
12.7357 43.6691 -8.6957 -1896
12.7449 43.6681 -8.6974 -1921
12.7954 43.7011 -8.7012 -1937
12.7944 43.6659 -8.6899 -1924
12.8152 43.7009 -8.6969 -1925
12.7544 43.7336 -8.6987 -1890
12.7952 43.7694 -8.6952 -1962
12.8302 43.7524 -8.6969 -1909
12.8397 43.7506 -8.6964 -1943
12.8842 43.6971 -8.6834 -1941
12.8947 43.6989 -8.6849 -1945
12.9004 43.6831 -8.6877 -1954
12.9197 43.6789 -8.6527 -1994
12.9394 43.7121 -8.6549 -1989
12.9477 43.6724 -8.6432 -1996
12.9632 43.6889 -8.6519 -1983
12.9649 43.6629 -8.6474 -1981
12.9729 43.6899 -8.6427 -1982
12.9752 43.6624 -8.6382 -1980
12.9802 43.7144 -8.6374 -1979
12.9862 43.6991 -8.5757 -1981
12.9849 43.6951 -8.5849 -1982
12.9854 43.6966 -8.5952 -1985
12.9849 43.6956 -8.6049 -1982
12.9854 43.6974 -8.6154 -1980
12.9852 43.6964 -8.6252 -1982
12.9827 43.6876 -8.6332 -1979
12.9852 43.6621 -8.6042 -1981
12.8879 43.7434 -8.6847 -1957
12.8924 43.7246 -8.6782 -1967
12.9032 43.7281 -8.6807 -1972
12.9254 43.7676 -8.6654 -1984
12.9234 43.7609 -8.6934 -1944
12.9222 43.7229 -8.6702 -1964
12.9249 43.7321 -8.6622 -1984
12.9327 43.7586 -8.6874 -1901
12.9369 43.7731 -8.6604 -1988
12.9484 43.7761 -8.6522 -1997
12.9359 43.7336 -8.6537 -1997
12.9529 43.7579 -8.6539 -1987
12.9622 43.7549 -8.6484 -1984
12.9517 43.7189 -8.6514 -1992
12.9632 43.7246 -8.6434 -1982
12.9729 43.7576 -8.6399 -1992
12.9819 43.7521 -8.6447 -1983
12.9749 43.7289 -8.6499 -1982
12.9862 43.7666 -8.6377 -1977
12.9834 43.7256 -8.6297 -1976
12.9887 43.7429 -8.6232 -1979
12.9884 43.7419 -8.5937 -1983
12.9519 43.5841 -8.5127 -2000
12.9504 43.5796 -8.5219 -1989
12.9582 43.5714 -8.5364 -1990
12.9497 43.5431 -8.5209 -1988
12.9549 43.5264 -8.5117 -2009
12.9762 43.5659 -8.5694 -1981
12.9737 43.5576 -8.5579 -1983
12.9472 43.5344 -8.5089 -1996
12.9572 43.5679 -8.5054 -2015
12.9652 43.5289 -8.5024 -2021
12.9514 43.6181 -8.5189 -1992
12.9822 43.6526 -8.5727 -1982
12.9824 43.6196 -8.5697 -1984
12.9547 43.6289 -8.5109 -1996
12.9572 43.6016 -8.5059 -2020
12.9609 43.6806 -8.5189 -1993
12.9604 43.6794 -8.5292 -1990
12.9682 43.6736 -8.5399 -1990
12.9744 43.6596 -8.5477 -1987
12.9887 43.7076 -8.5672 -1984
12.9849 43.6619 -8.5644 -1984
12.9877 43.7396 -8.5732 -1982
12.9914 43.7524 -8.6154 -1979
12.9897 43.7466 -8.6044 -1980
12.9897 43.7461 -8.5844 -1986
12.9899 43.7786 -8.5589 -1986
12.9897 43.7464 -8.5644 -1979
12.7419 43.7949 -8.7167 -1948
12.7612 43.8264 -8.7162 -1906
12.7627 43.7976 -8.7117 -1898
12.7894 43.8211 -8.7069 -1936
12.8259 43.8414 -8.7072 -1877
12.8114 43.7924 -8.7069 -1917
12.8289 43.8164 -8.7139 -1928
12.8349 43.8366 -8.7077 -1852
12.8424 43.8291 -8.7022 -1895
12.8377 43.8131 -8.7089 -1944
12.8609 43.7889 -8.7042 -1924
12.7359 43.8804 -8.7114 -1806
12.7407 43.8589 -8.7312 -1827
12.7434 43.8681 -8.7227 -1825
12.7514 43.8954 -8.7177 -1857
12.7639 43.9049 -8.7117 -1921
12.7527 43.8666 -8.7139 -1846
12.7494 43.8549 -8.7214 -1918
12.7622 43.8641 -8.7202 -1929
12.7702 43.8921 -8.7154 -1956
12.7837 43.9039 -8.7117 -1946
12.7727 43.8656 -8.7139 -1943
12.7797 43.8554 -8.7129 -1936
12.7902 43.8921 -8.7099 -1940
12.7977 43.8489 -8.7022 -1916
12.8317 43.8616 -8.7017 -1811
12.7684 43.7816 -8.6984 -1904
12.7889 43.7831 -8.7012 -1961
12.8024 43.8291 -8.7004 -1909
12.8142 43.8341 -8.6977 -1896
12.8457 43.8401 -8.6852 -1889
12.8449 43.8379 -8.6942 -1833
12.8459 43.8061 -8.6974 -1947
12.8507 43.8224 -8.6907 -1887
12.8549 43.8369 -8.6837 -1861
12.8572 43.8104 -8.6877 -1960
12.8552 43.8029 -8.6967 -1942
12.7939 43.8684 -8.6954 -1920
12.7872 43.8451 -8.7009 -1917
12.7979 43.8496 -8.6922 -1906
12.8007 43.8916 -8.6897 -1946
12.8029 43.8669 -8.6854 -1946
12.8122 43.8986 -8.6814 -1912
12.8134 43.9029 -8.6722 -1954
12.8212 43.8941 -8.6739 -1936
12.8199 43.8894 -8.6829 -1926
12.8084 43.8504 -8.6849 -1918
12.8074 43.8469 -8.6942 -1904
12.8209 43.8576 -8.6919 -1924
12.8307 43.8911 -8.6884 -1904
12.8317 43.8944 -8.6787 -1880
12.8424 43.8984 -8.6712 -1926
12.8409 43.8934 -8.6797 -1923
12.8379 43.8829 -8.6872 -1906
12.8324 43.8639 -8.6927 -1859
12.8382 43.8479 -8.6999 -1837
12.8384 43.8489 -8.6904 -1837
12.8437 43.8666 -8.6839 -1892
12.8509 43.8909 -8.6787 -1930
12.8512 43.8924 -8.6689 -1903
12.8602 43.8896 -8.6762 -1914
12.8547 43.8706 -8.6817 -1931
12.8609 43.8569 -8.6774 -1916
12.8807 43.8216 -8.7027 -1928
12.8779 43.8121 -8.7112 -1968
12.8709 43.7889 -8.7167 -1907
12.8799 43.7834 -8.7192 -1924
12.8864 43.8054 -8.7134 -1944
12.8884 43.8129 -8.7049 -1937
12.8642 43.8339 -8.6822 -1901
12.8674 43.8111 -8.6979 -1933
12.8702 43.8199 -8.6894 -1934
12.8924 43.8266 -8.6982 -1938
12.9032 43.8301 -8.6737 -1908
12.8992 43.8161 -8.6809 -1905
12.8934 43.7971 -8.6872 -1952
12.9057 43.8044 -8.6872 -1900
12.9084 43.8136 -8.6797 -1910
12.9159 43.8394 -8.6749 -1909
12.9177 43.8099 -8.6732 -1890
12.9137 43.7971 -8.6817 -1934
12.9252 43.8024 -8.6854 -1918
12.9284 43.8134 -8.6774 -1917
12.9307 43.8206 -8.6587 -1982
12.9402 43.8181 -8.6654 -1992
12.9362 43.8041 -8.6824 -1954
12.9314 43.7879 -8.6889 -1895
12.9514 43.8226 -8.6604 -1991
12.9544 43.7966 -8.6462 -1989
12.9649 43.7984 -8.6517 -1996
12.9719 43.8221 -8.6464 -1982
12.9884 43.8436 -8.6454 -1983
12.9784 43.8091 -8.6489 -1984
12.9819 43.7876 -8.6357 -1984
12.9887 43.8106 -8.6302 -1981
12.8644 43.9044 -8.6697 -1943
12.8742 43.9021 -8.6764 -1941
12.8822 43.8946 -8.6739 -1915
12.8694 43.8514 -8.6754 -1878
12.8834 43.8659 -8.6879 -1903
12.8892 43.8854 -8.6814 -1915
12.8917 43.8939 -8.6732 -1946
12.8929 43.8981 -8.6639 -1933
12.9022 43.8949 -8.6759 -1974
12.8979 43.8799 -8.6832 -1968
12.8977 43.8789 -8.6932 -1940
12.8937 43.8651 -8.7009 -1913
12.9029 43.8624 -8.6959 -1913
12.9072 43.8761 -8.6894 -1936
12.9057 43.8714 -8.6792 -1948
12.9079 43.8791 -8.6714 -1970
12.9119 43.8926 -8.6647 -1928
12.9219 43.8931 -8.6539 -1951
12.9177 43.8789 -8.6619 -1946
12.9187 43.8816 -8.6734 -1930
12.9342 43.9014 -8.6774 -1921
12.9314 43.8921 -8.6654 -1950
12.9307 43.8891 -8.6547 -1979
12.9367 43.8741 -8.6537 -1993
12.9349 43.8686 -8.6632 -1978
12.9442 43.9001 -8.6802 -1915
12.9404 43.8534 -8.6752 -1956
12.9394 43.8506 -8.6544 -1986
12.9514 43.8911 -8.6524 -1990
12.9597 43.8839 -8.6584 -1991
12.9504 43.8529 -8.6624 -1993
12.9582 43.8451 -8.6552 -2005
12.9714 43.8901 -8.6544 -1986
12.9789 43.8794 -8.6424 -1979
12.9689 43.8451 -8.6457 -1985
12.9812 43.8536 -8.6429 -1991
12.7349 43.9109 -8.7062 -1879
12.7482 43.9221 -8.7089 -1879
12.7599 43.9241 -8.7134 -1902
12.7609 43.9279 -8.7042 -1936
12.7684 43.9209 -8.7049 -1915
12.7767 43.9141 -8.7097 -1909
12.7799 43.9256 -8.7017 -1934
12.7864 43.9129 -8.7032 -1954
12.7982 43.9191 -8.7049 -1955
12.7397 43.9266 -8.6992 -1903
12.7419 43.9346 -8.6907 -1912
12.7437 43.9406 -8.6814 -1904
12.7492 43.9599 -8.6752 -1928
12.7584 43.9584 -8.6772 -1930
12.7537 43.9419 -8.6832 -1915
12.7524 43.9374 -8.6917 -1923
12.7509 43.9316 -8.7004 -1895
12.7612 43.9289 -8.6947 -1942
12.7642 43.9389 -8.6867 -1929
12.7657 43.9444 -8.6779 -1927
12.7724 43.9676 -8.6727 -1958
12.7824 43.9686 -8.6637 -1970
12.7769 43.9499 -8.6702 -1927
12.7754 43.9449 -8.6794 -1917
12.7724 43.9349 -8.6874 -1933
12.7707 43.9284 -8.6962 -1935
12.7804 43.9274 -8.6919 -1941
12.7847 43.9419 -8.6847 -1924
12.7852 43.9436 -8.6747 -1931
12.7884 43.9541 -8.6667 -1929
12.7972 43.9499 -8.6607 -1926
12.7962 43.9469 -8.6702 -1929
12.7934 43.9369 -8.6782 -1929
12.7919 43.9324 -8.6872 -1965
12.7912 43.9294 -8.6967 -1944
12.7992 43.9566 -8.6519 -1944
12.8012 43.9294 -8.6967 -1956
12.8037 43.9384 -8.6882 -1944
12.8042 43.9399 -8.6782 -1946
12.8054 43.9444 -8.6689 -1934
12.8074 43.9514 -8.6602 -1927
12.8194 43.9561 -8.6504 -1951
12.8172 43.9484 -8.6594 -1925
12.8149 43.9401 -8.6682 -1938
12.8124 43.9324 -8.6769 -1944
12.8119 43.9304 -8.6872 -1951
12.8207 43.9274 -8.6669 -1959
12.8244 43.9406 -8.6594 -1942
12.8244 43.9401 -8.6494 -1942
12.8307 43.9621 -8.6439 -1959
12.8392 43.9551 -8.6462 -1963
12.8372 43.9489 -8.6552 -1937
12.8314 43.9289 -8.6612 -1929
12.8299 43.9236 -8.6702 -1977
12.8359 43.9081 -8.6712 -1960
12.8412 43.9269 -8.6649 -1976
12.8462 43.9436 -8.6582 -1948
12.8499 43.9569 -8.6509 -1959
12.8507 43.9596 -8.6417 -1997
12.8612 43.9626 -8.6539 -1979
12.8554 43.9424 -8.6602 -1953
12.8462 43.9109 -8.6639 -1941
12.8609 43.9249 -8.6652 -1948
12.7432 44.0071 -8.6739 -1924
12.7579 44.0241 -8.6667 -1936
12.7467 43.9856 -8.6692 -1928
12.7617 44.0026 -8.6737 -1934
12.7794 44.0301 -8.6732 -1970
12.7694 43.9956 -8.6754 -1943
12.7839 44.0076 -8.6704 -1967
12.7947 44.0104 -8.6614 -1962
12.7939 43.9734 -8.6604 -1946
12.8039 44.0081 -8.6572 -1962
12.8094 44.0264 -8.6507 -1949
12.8199 44.0276 -8.6457 -1970
12.8102 43.9944 -8.6492 -1946
12.8139 43.9729 -8.6542 -1961
12.8254 44.0126 -8.6522 -1971
12.8387 44.0214 -8.6427 -2009
12.8302 43.9924 -8.6474 -1979
12.8372 43.9844 -8.6382 -2001
12.8487 43.9881 -8.6424 -2007
12.8724 43.9646 -8.6629 -1977
12.8802 43.9586 -8.6412 -1985
12.8832 43.9684 -8.6534 -1988
12.8792 43.9551 -8.6607 -1976
12.8759 43.9434 -8.6679 -1988
12.8799 43.9219 -8.6702 -1965
12.8887 43.9516 -8.6662 -1997
12.8892 43.9529 -8.6564 -1986
12.9039 43.9686 -8.6497 -1977
12.9004 43.9566 -8.6569 -1984
12.8952 43.9389 -8.6632 -1970
12.8897 43.9201 -8.6692 -1958
12.9052 43.9399 -8.6622 -1975
12.9104 43.9571 -8.6562 -1981
12.9194 43.9524 -8.6379 -1983
12.9114 43.9259 -8.6719 -1965
12.9194 43.9179 -8.6602 -1961
12.8802 43.9586 -8.6309 -1979
12.8939 43.9694 -8.6294 -1977
12.8942 43.9704 -8.6192 -1989
12.9009 43.9584 -8.6084 -1981
12.9322 43.9614 -8.6589 -1970
12.9322 43.9614 -8.6382 -1981
12.9442 43.9694 -8.6469 -1977
12.9349 43.9379 -8.6517 -1966
12.9424 43.9286 -8.6522 -1985
12.9552 43.9369 -8.6557 -1985
12.9674 43.9449 -8.6532 -1990
12.9822 43.9601 -8.6529 -1983
12.9722 43.9261 -8.6567 -1986
12.9832 43.9296 -8.6522 -1981
12.9444 43.9701 -8.6362 -1983
12.8724 44.0339 -8.6462 -1990
12.8732 44.0036 -8.6517 -1976
12.8747 43.9721 -8.6542 -1977
12.8762 43.9776 -8.6452 -1985
12.8954 43.9744 -8.6507 -1985
12.9034 44.0021 -8.6462 -1984
12.9112 43.9939 -8.6452 -1993
12.9182 43.9839 -8.6519 -1994
12.9237 44.0024 -8.6457 -1981
12.9254 43.9731 -8.6614 -1989
12.9252 43.9726 -8.6714 -1985
12.8942 44.0064 -8.6297 -1982
12.9089 44.0201 -8.6184 -1982
12.9102 44.0246 -8.6087 -1979
12.9199 44.0234 -8.6004 -1982
12.9189 44.0199 -8.6102 -1979
12.9082 43.9834 -8.6234 -1979
12.9114 43.9949 -8.6354 -1978
12.9202 43.9906 -8.6337 -1978
12.9144 43.9714 -8.6197 -1985
12.9412 44.0269 -8.6429 -1986
12.9292 43.9861 -8.6544 -1979
12.9437 44.0006 -8.6564 -1980
12.9579 43.9814 -8.6519 -1985
12.9679 44.0149 -8.6477 -1991
12.9812 44.0256 -8.6534 -1988
12.9712 43.9911 -8.6564 -1992
12.9774 43.9786 -8.6499 -1991
12.9887 44.0169 -8.6472 -1980
12.9534 44.0001 -8.6314 -1992
12.9862 43.8354 -8.5534 -1988
12.9864 43.8026 -8.5474 -1988
12.9939 43.8284 -8.6239 -1979
12.9947 43.8309 -8.6142 -1980
12.9974 43.8399 -8.6059 -1980
12.9979 43.8419 -8.5959 -1981
12.9959 43.8349 -8.5844 -1981
12.9982 43.8426 -8.5757 -1983
12.9914 43.7841 -8.5807 -1983
12.9924 43.7874 -8.5914 -1981
12.9962 43.8001 -8.6042 -1983
12.9929 43.7891 -8.6122 -1976
12.9917 43.7849 -8.6214 -1979
12.9904 43.7809 -8.6307 -1979
12.9939 43.8961 -8.6417 -1982
12.9942 43.8624 -8.6392 -1979
12.9997 43.8809 -8.5824 -1984
12.9994 43.8799 -8.5922 -1982
12.9992 43.8794 -8.6022 -1988
12.9969 43.8719 -8.6107 -1981
12.9997 43.8809 -8.6224 -1982
12.9962 43.8694 -8.6304 -1977
12.9919 43.9589 -8.6479 -1983
12.9924 43.9249 -8.6412 -1979
13.0057 43.9694 -8.5884 -1985
13.0034 43.9624 -8.6179 -1986
13.0039 43.9641 -8.6287 -1984
12.9999 43.9506 -8.6362 -1981
12.9979 43.9104 -8.6344 -1981
13.0019 43.9234 -8.6269 -1982
13.0029 43.9269 -8.6174 -1979
13.0052 43.9344 -8.6087 -1984
13.0014 43.9211 -8.5957 -1984
13.0034 43.9286 -8.5869 -1985
13.0037 43.9296 -8.5769 -1986
12.9934 43.9976 -8.6499 -1980
13.0019 43.9931 -8.6447 -1979
13.0069 44.0099 -8.6374 -1984
13.0077 44.0121 -8.6272 -1984
13.0097 44.0189 -8.6179 -1986
13.0102 44.0209 -8.6077 -1986
13.0109 44.0231 -8.5977 -1984
13.0072 44.0106 -8.5847 -1986
13.0064 43.9724 -8.5789 -1985
13.0082 43.9784 -8.6004 -1984
13.0079 43.9779 -8.6107 -1986
12.9972 43.8391 -8.5647 -1980
12.9937 43.7911 -8.5717 -1982
12.9979 43.8749 -8.5712 -1983
13.0037 43.9291 -8.5667 -1982
13.2702 43.5694 -8.7082 -1967
13.2887 43.5629 -8.7132 -1972
13.2984 43.5634 -8.7137 -1965
13.3484 43.5299 -8.7074 -1964
13.2697 43.6349 -8.7139 -1965
13.3444 43.6474 -8.7167 -1949
13.3447 43.6151 -8.7202 -1928
13.3604 43.6334 -8.7169 -1934
13.3699 43.6321 -8.7154 -1941
13.3719 43.5726 -8.7139 -1946
13.4434 43.5416 -8.7129 -1963
13.4907 43.5629 -8.7187 -1943
13.3897 43.5981 -8.7112 -1930
13.4019 43.6046 -8.7214 -1915
13.4259 43.6494 -8.7324 -1919
13.4319 43.6029 -8.7232 -1936
13.4494 43.6264 -8.7289 -1888
13.4664 43.6491 -8.7349 -1950
13.4719 43.6019 -8.7257 -1969
13.4929 43.6364 -8.7369 -1960
13.4939 43.6071 -8.7284 -1957
13.3037 43.7136 -8.7262 -1943
13.3097 43.6676 -8.7189 -1959
13.3349 43.7141 -8.7334 -1966
13.3439 43.7121 -8.7332 -1972
13.3632 43.6759 -8.7222 -1967
13.3034 43.7796 -8.7384 -1930
13.3037 43.7461 -8.7262 -1936
13.3159 43.7194 -8.7282 -1951
13.3287 43.7299 -8.7209 -1954
13.3402 43.7311 -8.7267 -1956
13.3537 43.7444 -8.7294 -1967
13.3564 43.7206 -8.7264 -1934
13.3912 43.6691 -8.7252 -1959
13.4109 43.6996 -8.7292 -1965
13.4207 43.6986 -8.7209 -1958
13.4212 43.7006 -8.7109 -1969
13.4297 43.6946 -8.7294 -1949
13.4554 43.7126 -8.7279 -1943
13.4374 43.6541 -8.7264 -1905
13.4492 43.6584 -8.7239 -1932
13.4672 43.6841 -8.7304 -1938
13.4839 43.7061 -8.7362 -1937
13.4884 43.6874 -8.7222 -1951
13.4789 43.6566 -8.7259 -1961
13.4917 43.6659 -8.7282 -1923
13.3742 43.7786 -8.7279 -1929
13.3834 43.7746 -8.7317 -1943
13.3982 43.7566 -8.7314 -1976
13.4042 43.7439 -8.7279 -1963
13.4117 43.7356 -8.7282 -1941
13.4219 43.7354 -8.7262 -1967
13.4447 43.7774 -8.7159 -1948
13.4394 43.7269 -8.7259 -1976
13.4589 43.7564 -8.7437 -1914
13.4679 43.7196 -8.7257 -1958
13.4959 43.7771 -8.7389 -1911
13.4964 43.7461 -8.7339 -1963
13.5039 43.5751 -8.7177 -1944
13.5102 43.5606 -8.7142 -1941
13.5234 43.5719 -8.7129 -1956
13.5267 43.5484 -8.7182 -1946
13.5414 43.5631 -8.7277 -1958
13.5544 43.5721 -8.7289 -1965
13.5554 43.5439 -8.7249 -1909
13.5677 43.5501 -8.7207 -1956
13.5749 43.5411 -8.7257 -1895
13.5889 43.5856 -8.7244 -1961
13.5927 43.5646 -8.7249 -1907
13.5064 43.6471 -8.7262 -1941
13.5067 43.6141 -8.7189 -1965
13.5257 43.6454 -8.7214 -1956
13.5357 43.6429 -8.7207 -1957
13.5449 43.6071 -8.7199 -1972
13.5672 43.6461 -8.7339 -1972
13.5752 43.6396 -8.7322 -1958
13.5752 43.6074 -8.7274 -1964
13.5839 43.6351 -8.7227 -1956
13.5802 43.5904 -8.7189 -1976
13.6072 43.6111 -8.7242 -1935
13.5022 43.6999 -8.7247 -1960
13.5172 43.7144 -8.7327 -1915
13.5009 43.6619 -8.7319 -1911
13.5212 43.6951 -8.7254 -1948
13.5254 43.6754 -8.7212 -1942
13.5729 43.6649 -8.7274 -1933
13.5802 43.6879 -8.7217 -1982
13.5899 43.6869 -8.7217 -1973
13.5839 43.6674 -8.7279 -1954
13.5979 43.6801 -8.7217 -1984
13.6042 43.6674 -8.7242 -1988
13.6134 43.6644 -8.7299 -1968
13.5062 43.7446 -8.7237 -1967
13.5554 43.7724 -8.7307 -1939
13.5609 43.7586 -8.7337 -1946
13.5672 43.7786 -8.7274 -1956
13.5749 43.7691 -8.7257 -1963
13.5687 43.7486 -8.7317 -1968
13.5742 43.7349 -8.7352 -1947
13.5849 43.7696 -8.7319 -1936
13.5792 43.7171 -8.7319 -1960
13.6487 43.7774 -8.7322 -1947
13.6554 43.7651 -8.7244 -1947
13.6569 43.7706 -8.7357 -1948
13.6464 43.7369 -8.7392 -1975
13.2797 43.8019 -8.7167 -1986
13.2869 43.7929 -8.7252 -1991
13.2897 43.8019 -8.7164 -1950
13.2977 43.7936 -8.7287 -1962
13.2992 43.7991 -8.7399 -1969
13.3082 43.7954 -8.7312 -1940
13.3274 43.8246 -8.7219 -1958
13.3154 43.7849 -8.7239 -1952
13.3257 43.7861 -8.7304 -1946
13.3384 43.8281 -8.7284 -1983
13.3439 43.8114 -8.7264 -1971
13.3384 43.7934 -8.7329 -1914
13.3477 43.7921 -8.7229 -1967
13.3539 43.8131 -8.7167 -1974
13.3624 43.8404 -8.7119 -1983
13.3632 43.8066 -8.7317 -1975
13.2809 43.9056 -8.7097 -1994
13.2894 43.8989 -8.7189 -1973
13.2884 43.8964 -8.7284 -1990
13.2934 43.8804 -8.7297 -1941
13.3009 43.9049 -8.7244 -1950
13.3014 43.9064 -8.7144 -1959
13.3004 43.9031 -8.7037 -1960
13.2994 43.8674 -8.7202 -1932
13.3094 43.8999 -8.7169 -1925
13.3107 43.8711 -8.7199 -1913
13.3182 43.8961 -8.7147 -1955
13.3207 43.9041 -8.7059 -1964
13.3302 43.9009 -8.7099 -1986
13.3292 43.8979 -8.7194 -1964
13.3247 43.8824 -8.7264 -1944
13.3154 43.8526 -8.7304 -1932
13.3247 43.8499 -8.7317 -1906
13.3352 43.8844 -8.7284 -1947
13.3404 43.9011 -8.7214 -1952
13.3419 43.9064 -8.7122 -1960
13.3522 43.9064 -8.7084 -1954
13.3422 43.8734 -8.7119 -1957
13.3384 43.8606 -8.7192 -1963
13.3467 43.8546 -8.7237 -1966
13.3549 43.8819 -8.7189 -1954
13.3624 43.9066 -8.7134 -1971
13.3617 43.9041 -8.7027 -1954
13.3679 43.8901 -8.7119 -1963
13.3579 43.8571 -8.7154 -1956
13.3557 43.8504 -8.7242 -1983
13.3114 43.9066 -8.6982 -1962
13.3209 43.9051 -8.6959 -1964
13.3394 43.8986 -8.7004 -1968
13.3509 43.9019 -8.6977 -1964
13.3724 43.8371 -8.7277 -1976
13.3704 43.7989 -8.7299 -1938
13.3869 43.8204 -8.7162 -1944
13.3762 43.7849 -8.7192 -1914
13.3894 43.7941 -8.7254 -1954
13.4069 43.8186 -8.7304 -1971
13.3982 43.7904 -8.7349 -1983
13.4127 43.8044 -8.7307 -1970
13.4242 43.8096 -8.7312 -1938
13.4314 43.8001 -8.7307 -1927
13.4417 43.8334 -8.7272 -1927
13.4504 43.8284 -8.7244 -1951
13.4419 43.8004 -8.7289 -1938
13.4627 43.8359 -8.7174 -1922
13.4744 43.8404 -8.7384 -1925
13.4744 43.8069 -8.7434 -1940
13.4899 43.8244 -8.7302 -1983
13.4809 43.7954 -8.7344 -1973
13.3702 43.8974 -8.7032 -1972
13.3707 43.8679 -8.7069 -1954
13.3807 43.9004 -8.7032 -1955
13.3907 43.8966 -8.7194 -1936
13.3872 43.8859 -8.7272 -1931
13.3872 43.8539 -8.7307 -1965
13.4012 43.8994 -8.7297 -1933
13.4007 43.8981 -8.7192 -1955
13.4029 43.9054 -8.7102 -1962
13.4117 43.9009 -8.7019 -1954
13.4112 43.8996 -8.7119 -1954
13.4084 43.8906 -8.7202 -1949
13.4089 43.8581 -8.7279 -1957
13.4199 43.8944 -8.7249 -1959
13.4232 43.9051 -8.7064 -1959
13.4299 43.8944 -8.7154 -1964
13.4299 43.8939 -8.7252 -1961
13.4232 43.8721 -8.7309 -1952
13.4294 43.8591 -8.7314 -1963
13.4339 43.9071 -8.7079 -1962
13.4382 43.8876 -8.7269 -1962
13.4407 43.8961 -8.7182 -1964
13.4419 43.9001 -8.7087 -1963
13.4529 43.9034 -8.7102 -1947
13.4502 43.8939 -8.7182 -1961
13.4469 43.8834 -8.7262 -1969
13.4362 43.8484 -8.7289 -1954
13.4502 43.8609 -8.7224 -1960
13.4612 43.8971 -8.7194 -1959
13.4629 43.9026 -8.7102 -1967
13.4729 43.9014 -8.7089 -1948
13.4634 43.8704 -8.7227 -1957
13.4809 43.8954 -8.7189 -1949
13.4814 43.8971 -8.7092 -1944
13.4902 43.8921 -8.7182 -1957
13.4884 43.8861 -8.7272 -1954
13.4857 43.8766 -8.7354 -1933
13.4909 43.8606 -8.7439 -1956
13.4959 43.8764 -8.7367 -1950
13.4527 43.9024 -8.7002 -1949
13.4829 43.9014 -8.6999 -1932
13.2722 43.9111 -8.7032 -1955
13.2927 43.9101 -8.7112 -1959
13.3119 43.9081 -8.7087 -1945
13.3337 43.9129 -8.7024 -1970
13.2629 43.9461 -8.6844 -1983
13.2632 43.9151 -8.7007 -1968
13.2729 43.9476 -8.6969 -1975
13.2744 43.9186 -8.6942 -1953
13.2837 43.9141 -8.7012 -1970
13.2817 43.9084 -8.6899 -1952
13.2879 43.9289 -8.6842 -1968
13.3032 43.9444 -8.6977 -1970
13.2929 43.9104 -8.7012 -1962
13.3039 43.9151 -8.6957 -1969
13.3227 43.9434 -8.6847 -1980
13.3134 43.9131 -8.6892 -1948
13.3299 43.9341 -8.6914 -1963
13.3439 43.9464 -8.6989 -1969
13.3454 43.9181 -8.6939 -1967
13.3634 43.9431 -8.6857 -1969
13.3552 43.9156 -8.6904 -1961
13.2662 44.0269 -8.6897 -2002
13.2667 43.9946 -8.6942 -1975
13.2784 43.9974 -8.6844 -1977
13.2849 43.9871 -8.6947 -1973
13.3062 44.0231 -8.6947 -1979
13.2907 43.9726 -8.6947 -1975
13.3027 43.9776 -8.6839 -1970
13.3189 44.0311 -8.6849 -1974
13.3167 43.9889 -8.6964 -1973
13.3212 43.9719 -8.6969 -1981
13.3384 44.0289 -8.6982 -1977
13.3442 44.0151 -8.6882 -1979
13.3472 43.9911 -8.6929 -1971
13.3599 43.9984 -8.6992 -1970
13.3619 43.9719 -8.6944 -1955
13.4107 43.9626 -8.7024 -1963
13.3972 43.9181 -8.7037 -1961
13.3937 43.9071 -8.7117 -1955
13.4077 43.9206 -8.7029 -1965
13.4214 43.9656 -8.7017 -1969
13.4247 43.9096 -8.7177 -1964
13.4429 43.9366 -8.7037 -1965
13.4672 43.9166 -8.7029 -1949
13.4852 43.9409 -8.7069 -1975
13.4767 43.9131 -8.7214 -1961
13.4949 43.9071 -8.7112 -1950
13.4252 44.0099 -8.7017 -1978
13.4617 43.9981 -8.7059 -1969
13.4852 43.9754 -8.7042 -1954
13.3712 43.9349 -8.6984 -1978
13.3782 43.9239 -8.6982 -1975
13.3842 43.9121 -8.6952 -1952
13.3924 43.9389 -8.6904 -1972
13.4259 43.9471 -8.6907 -1960
13.4164 43.9166 -8.6949 -1939
13.4254 43.9121 -8.6977 -1954
13.4397 43.9589 -8.6967 -1968
13.4444 43.9081 -8.7002 -1957
13.4584 43.9539 -8.6989 -1972
13.4607 43.9284 -8.6952 -1960
13.4942 43.9384 -8.6969 -1976
13.3779 44.0249 -8.6949 -1966
13.3807 43.9999 -8.6869 -1976
13.3874 43.9889 -8.6989 -1981
13.3949 43.9784 -8.6987 -1976
13.4049 43.9804 -8.6887 -1970
13.4339 44.0069 -8.6997 -1982
13.4442 44.0074 -8.6924 -1952
13.4574 44.0169 -8.6982 -1972
13.4752 44.0086 -8.6997 -1973
13.4742 43.9721 -8.6937 -1965
13.5134 43.8334 -8.7399 -1948
13.5077 43.7824 -8.7309 -1942
13.5252 43.8399 -8.7322 -1970
13.5299 43.8219 -8.7289 -1973
13.5439 43.8351 -8.7414 -1960
13.5502 43.8209 -8.7439 -1941
13.5619 43.8269 -8.7412 -1931
13.5654 43.8044 -8.7269 -1936
13.5757 43.8061 -8.7227 -1955
13.5817 43.7906 -8.7199 -1962
13.5899 43.7854 -8.7249 -1972
13.5994 43.8166 -8.7209 -1963
13.6137 43.8281 -8.7339 -1977
13.5999 43.7844 -8.7352 -1984
13.6184 43.8109 -8.7362 -1984
13.5027 43.8984 -8.7307 -1946
13.5009 43.8926 -8.7192 -1957
13.5049 43.9059 -8.7114 -1967
13.5142 43.9034 -8.7067 -1956
13.5107 43.8921 -8.7142 -1969
13.5104 43.8914 -8.7239 -1948
13.5007 43.8594 -8.7274 -1957
13.5064 43.8444 -8.7402 -1950
13.5097 43.8551 -8.7322 -1954
13.5119 43.8621 -8.7232 -1965
13.5197 43.8871 -8.7179 -1971
13.5224 43.8959 -8.7094 -1972
13.5359 43.9066 -8.7144 -1961
13.5329 43.8966 -8.7224 -1965
13.5199 43.8549 -8.7242 -1956
13.5179 43.8481 -8.7329 -1950
13.5322 43.8626 -8.7267 -1955
13.5427 43.8966 -8.7232 -1964
13.5447 43.9024 -8.7139 -1975
13.5524 43.8941 -8.7132 -1973
13.5439 43.8669 -8.7179 -1960
13.5412 43.8576 -8.7262 -1967
13.5519 43.8606 -8.7362 -1971
13.5502 43.8551 -8.7249 -1971
13.5599 43.8869 -8.7209 -1961
13.5597 43.8521 -8.7399 -1963
13.5607 43.8891 -8.7109 -1964
13.5747 43.9004 -8.7194 -1959
13.5714 43.8904 -8.7277 -1953
13.5619 43.8594 -8.7314 -1984
13.5712 43.8566 -8.7369 -1942
13.5769 43.8746 -8.7304 -1936
13.5799 43.8846 -8.7222 -1956
13.5852 43.9014 -8.7152 -1956
13.5949 43.8991 -8.7057 -1947
13.5924 43.8916 -8.7142 -1963
13.5914 43.8881 -8.7234 -1936
13.5849 43.8671 -8.7294 -1915
13.6017 43.8901 -8.7292 -1913
13.6034 43.8956 -8.7199 -1933
13.6062 43.9046 -8.7112 -1946
13.6137 43.8939 -8.7104 -1966
13.6132 43.8921 -8.7202 -1924
13.6102 43.8824 -8.7282 -1920
13.6222 43.8896 -8.7252 -1915
13.6342 43.8286 -8.7399 -1955
13.6379 43.8086 -8.7369 -1955
13.6587 43.8424 -8.7287 -1934
13.6557 43.8329 -8.7369 -1933
13.6454 43.8001 -8.7404 -1960
13.6534 43.7924 -8.7452 -1921
13.6522 43.7886 -8.7242 -1938
13.6589 43.8101 -8.7182 -1968
13.6789 43.8406 -8.7192 -1960
13.6684 43.8069 -8.7224 -1960
13.6247 43.8974 -8.7164 -1957
13.6264 43.9029 -8.7072 -1958
13.6357 43.8989 -8.7079 -1954
13.6334 43.8916 -8.7164 -1964
13.6339 43.8936 -8.7269 -1920
13.6267 43.8701 -8.7322 -1935
13.6287 43.8441 -8.7327 -1978
13.6404 43.8814 -8.7299 -1968
13.6434 43.8916 -8.7217 -1971
13.6439 43.8929 -8.7114 -1970
13.6552 43.8966 -8.7132 -1976
13.6542 43.8931 -8.7227 -1973
13.6527 43.8881 -8.7317 -1962
13.6447 43.8629 -8.7367 -1953
13.6574 43.8714 -8.7394 -1973
13.6614 43.8844 -8.7319 -1952
13.6634 43.8904 -8.7227 -1965
13.6659 43.8986 -8.7142 -1967
13.6762 43.8981 -8.7097 -1967
13.6744 43.8931 -8.7187 -1976
13.6669 43.8686 -8.7239 -1961
13.6754 43.8629 -8.7184 -1980
13.6849 43.8936 -8.7142 -1972
13.6954 43.8941 -8.7094 -1971
13.6927 43.8846 -8.7177 -1981
13.5032 43.9344 -8.7064 -1965
13.5189 43.9511 -8.7102 -1980
13.5257 43.9409 -8.7042 -1970
13.5304 43.9221 -8.7044 -1961
13.5449 43.9694 -8.7037 -1978
13.5424 43.9276 -8.7087 -1973
13.5479 43.9131 -8.7059 -1965
13.5574 43.9104 -8.7064 -1971
13.5607 43.9549 -8.7039 -1970
13.5697 43.9184 -8.7064 -1969
13.5857 43.9701 -8.7067 -1951
13.5884 43.9454 -8.7082 -1958
13.5772 43.9086 -8.7109 -1944
13.5882 43.9114 -8.7069 -1946
13.6042 43.9631 -8.7069 -1957
13.6084 43.9434 -8.7044 -1970
13.6174 43.9409 -8.7082 -1952
13.5019 44.0299 -8.7052 -1975
13.5037 44.0011 -8.7089 -1970
13.5329 44.0309 -8.7052 -1970
13.5149 43.9721 -8.7037 -1978
13.5394 44.0181 -8.7132 -1971
13.5442 44.0001 -8.7059 -1973
13.5579 44.0116 -8.7019 -1962
13.5597 43.9834 -8.7099 -1972
13.5729 44.0264 -8.7082 -1959
13.5762 44.0051 -8.7037 -1965
13.5817 43.9894 -8.7014 -1964
13.6027 44.0249 -8.7074 -1970
13.6047 43.9976 -8.7084 -1960
13.6167 44.0039 -8.7049 -1952
13.6224 43.9884 -8.7034 -1956
13.5649 43.9346 -8.7009 -1970
13.5119 43.9961 -8.6984 -1973
13.6242 43.9281 -8.7072 -1964
13.6392 43.9446 -8.7054 -1951
13.6489 43.9414 -8.7062 -1967
13.6552 43.9291 -8.7084 -1957
13.6629 43.9216 -8.7082 -1956
13.6729 43.9206 -8.7082 -1965
13.6797 43.9429 -8.7024 -1973
13.6852 43.9269 -8.7054 -1964
13.6894 43.9081 -8.7069 -1951
13.7034 43.9529 -8.7057 -1972
13.7054 43.9256 -8.7057 -1972
13.6334 43.9924 -8.7082 -1954
13.6412 43.9829 -8.7079 -1955
13.6512 43.9831 -8.7029 -1960
13.6629 43.9866 -8.7049 -1946
13.6697 43.9761 -8.7077 -1960
13.6784 43.9714 -8.7079 -1957
13.6932 44.0184 -8.7069 -1961
13.7044 44.0219 -8.7082 -1967
13.6999 43.9746 -8.7047 -1973
13.7184 44.0011 -8.7052 -1975
13.7229 43.9816 -8.7064 -1964
12.5499 44.0759 -8.6664 -1919
12.5524 44.0469 -8.6649 -1925
12.5729 44.0846 -8.6687 -1927
12.5604 44.0411 -8.6702 -1935
12.5749 44.0549 -8.6674 -1929
12.5892 44.0701 -8.6657 -1935
12.6032 44.0834 -8.6694 -1915
12.6044 44.0534 -8.6687 -1913
12.5707 44.1494 -8.6709 -1901
12.5689 44.1044 -8.6662 -1925
12.5917 44.1141 -8.6692 -1925
12.6119 44.0439 -8.6627 -1911
12.6274 44.0971 -8.6634 -1931
12.6329 44.0819 -8.6707 -1922
12.6387 44.0679 -8.6684 -1925
12.6497 44.0704 -8.6697 -1929
12.6567 44.0594 -8.6694 -1908
12.6634 44.0459 -8.6677 -1922
12.6757 44.0886 -8.6662 -1913
12.6812 44.0736 -8.6674 -1896
12.6877 44.0619 -8.6709 -1900
12.6944 44.0511 -8.6732 -1899
12.7052 44.0886 -8.6707 -1934
12.7174 44.0946 -8.6729 -1937
12.7042 44.0481 -8.6739 -1892
12.7149 44.0519 -8.6737 -1907
12.7224 44.0406 -8.6782 -1902
12.7317 44.0394 -8.6687 -1910
12.6097 44.1411 -8.6694 -1925
12.6237 44.1204 -8.6717 -1930
12.6794 44.1386 -8.6752 -1924
12.7084 44.1336 -8.6747 -1913
12.5929 44.2631 -8.6839 -1893
12.6347 44.1931 -8.6809 -1917
12.6514 44.2174 -8.6704 -1914
12.6492 44.2096 -8.6789 -1894
12.6547 44.1926 -8.6722 -1877
12.6587 44.2066 -8.6649 -1884
12.6577 44.1676 -8.6777 -1911
12.6699 44.1766 -8.6799 -1928
12.6889 44.2071 -8.6867 -1912
12.7164 44.1966 -8.6817 -1933
12.6204 44.2509 -8.6912 -1923
12.6489 44.2791 -8.6867 -1921
12.6462 44.2336 -8.6789 -1922
12.6689 44.2421 -8.6619 -1913
12.6757 44.2311 -8.6802 -1929
12.6374 44.3456 -8.7034 -1945
12.6379 44.3849 -8.7069 -1873
12.6652 44.4081 -8.7122 -1903
12.6754 44.4074 -8.7069 -1902
12.6947 44.4026 -8.7019 -1908
12.7247 44.3671 -8.7072 -1893
12.7339 44.3994 -8.7032 -1910
12.6524 44.3266 -8.7012 -1946
12.6884 44.3471 -8.6857 -1968
12.7329 44.2884 -8.6954 -1940
12.7199 44.3854 -8.7004 -1915
12.6494 44.4611 -8.7127 -1904
12.6534 44.4754 -8.7052 -1938
12.6614 44.4679 -8.7029 -1953
12.6569 44.4516 -8.7099 -1899
12.6634 44.4369 -8.7112 -1883
12.6714 44.4641 -8.7064 -1949
12.6827 44.4696 -8.7037 -1906
12.6724 44.4336 -8.7069 -1871
12.6837 44.4356 -8.7022 -1896
12.6937 44.4359 -8.7072 -1908
12.7094 44.4546 -8.7019 -1947
12.6949 44.5121 -8.7017 -1898
12.7274 44.4829 -8.7019 -1954
12.6752 44.4779 -8.6989 -1968
12.6914 44.4631 -8.6974 -1921
12.7037 44.4709 -8.6937 -1924
12.6997 44.4566 -8.7012 -1918
12.7337 44.4334 -8.6997 -1910
12.6567 44.4871 -8.6969 -1960
12.6652 44.5161 -8.6924 -1936
12.6689 44.5299 -8.6847 -1900
12.6704 44.5351 -8.6752 -1872
12.6672 44.4879 -8.6964 -1963
12.6802 44.5336 -8.6742 -1894
12.6797 44.5319 -8.6844 -1898
12.6757 44.5181 -8.6919 -1936
12.6854 44.5131 -8.6954 -1925
12.6889 44.5259 -8.6877 -1892
12.6907 44.5321 -8.6787 -1872
12.6922 44.5369 -8.6692 -1887
12.7007 44.5326 -8.6747 -1897
12.6999 44.5299 -8.6844 -1893
12.6974 44.5211 -8.6932 -1884
12.7064 44.5159 -8.6972 -1880
12.7082 44.5216 -8.6879 -1868
12.7102 44.5289 -8.6789 -1887
12.7132 44.5396 -8.6707 -1897
12.7217 44.5334 -8.6649 -1928
12.7219 44.5341 -8.6754 -1909
12.7189 44.5241 -8.6837 -1915
12.7177 44.5191 -8.6929 -1881
12.7209 44.4949 -8.6994 -1934
12.7274 44.5174 -8.6934 -1873
12.7304 44.5279 -8.6852 -1878
12.7312 44.5306 -8.6754 -1926
12.6644 44.5489 -8.6644 -1891
12.6754 44.5524 -8.6682 -1883
12.6852 44.5509 -8.6672 -1893
12.7014 44.5696 -8.6654 -1930
12.7052 44.5481 -8.6672 -1925
12.7227 44.5729 -8.6669 -1947
12.7377 44.0939 -8.6789 -1910
12.7444 44.0469 -8.6717 -1914
12.7547 44.0464 -8.6714 -1911
12.7737 44.0791 -8.6674 -1938
12.7717 44.0374 -8.6704 -1962
12.7907 44.0696 -8.6719 -1965
