1599
11.8849 37.7961 -8.6261 -1894
11.8461 37.8946 -8.6221 -1857
11.8411 37.8469 -8.6256 -1866
11.8524 37.8834 -8.6233 -1862
11.8586 37.8699 -8.6243 -1935
11.8926 37.8511 -8.6271 -1897
11.8604 37.9404 -8.6223 -1881
11.8651 37.9236 -8.6221 -1897
11.8704 38.0354 -8.6203 -1961
11.8596 38.0009 -8.6223 -1872
11.8749 38.0184 -8.6226 -1967
11.8849 38.0186 -8.6201 -1906
11.8789 37.9996 -8.6258 -1861
11.8874 37.9949 -8.6276 -1864
11.8671 38.0574 -8.6183 -1931
12.4849 37.3129 -8.5356 -1992
12.4829 37.3071 -8.5241 -1996
12.4874 37.3204 -8.5173 -2004
12.4871 37.3196 -8.5071 -2019
12.4894 37.2976 -8.5106 -2011
12.4846 37.2836 -8.5173 -2002
12.4871 37.2914 -8.5391 -1990
12.5136 37.3704 -8.5671 -1984
12.4914 37.3924 -8.5263 -1993
12.4866 37.3781 -8.5133 -2001
12.4906 37.3606 -8.5128 -2016
12.4876 37.3516 -8.5206 -2000
12.4869 37.3491 -8.5298 -1992
12.4999 37.3881 -8.5488 -1990
12.5109 37.3906 -8.5633 -1987
12.5066 37.3779 -8.5106 -2027
12.5036 37.3404 -8.5106 -2021
12.5161 37.4374 -8.5701 -1986
12.5226 37.4561 -8.5843 -1988
12.4911 37.4511 -8.5176 -1999
12.5034 37.4584 -8.5163 -2020
12.4924 37.4259 -8.5188 -2002
12.4904 37.4194 -8.5273 -1997
12.4966 37.4386 -8.5416 -1991
12.4979 37.4114 -8.5408 -1990
12.4994 37.4161 -8.5121 -2012
12.5114 37.4521 -8.5101 -2028
12.5096 37.4174 -8.5158 -2022
12.5254 37.5246 -8.5711 -1986
12.5256 37.5254 -8.5813 -1985
12.5214 37.4819 -8.5871 -1989
12.5236 37.4889 -8.5786 -1986
12.5229 37.4864 -8.5681 -1987
12.4941 37.4911 -8.5103 -2013
12.4986 37.5049 -8.5231 -1999
12.5006 37.5106 -8.5343 -1991
12.5139 37.5199 -8.5533 -1993
12.4959 37.4659 -8.5311 -1993
12.4996 37.4766 -8.5136 -2016
12.5289 37.5644 -8.6041 -1987
12.5301 37.5686 -8.5948 -1987
12.5284 37.5631 -8.5833 -1987
12.5311 37.5714 -8.5751 -1986
12.5266 37.5284 -8.5918 -1988
12.5269 37.5294 -8.6021 -1986
12.5026 37.5771 -8.5093 -2018
12.5016 37.5741 -8.5186 -1998
12.5029 37.5776 -8.5293 -1992
12.5044 37.5524 -8.5386 -1991
12.4981 37.5334 -8.5243 -1995
12.5029 37.5476 -8.5176 -2014
12.5294 37.6276 -8.6268 -1986
12.5319 37.6354 -8.6183 -1984
12.5339 37.6409 -8.6093 -1990
12.5359 37.6466 -8.6006 -1987
12.5351 37.6444 -8.5898 -1984
12.5334 37.6391 -8.5786 -1987
12.5289 37.6259 -8.5653 -1987
12.5314 37.6026 -8.5751 -1984
12.5309 37.6016 -8.5846 -1984
12.5289 37.5956 -8.5933 -1986
12.5324 37.6061 -8.6056 -1985
12.5321 37.6049 -8.6153 -1986
12.5101 37.6276 -8.5348 -1990
12.5041 37.6099 -8.5208 -1993
12.5074 37.6194 -8.5131 -2011
12.5216 37.6336 -8.5521 -1993
12.5199 37.5989 -8.5091 -2027
12.5279 37.5924 -8.5628 -1987
12.5364 37.7066 -8.6233 -1981
12.5359 37.6771 -8.5718 -1984
12.5354 37.6754 -8.5813 -1986
12.5376 37.6819 -8.5928 -1988
12.5356 37.6761 -8.6013 -1986
12.5359 37.6766 -8.6216 -1987
12.5139 37.7014 -8.5281 -1991
12.5104 37.6904 -8.5158 -1999
12.5189 37.6856 -8.5138 -2021
12.5104 37.6599 -8.5178 -2002
12.5099 37.6581 -8.5273 -1992
12.5201 37.6891 -8.5443 -1992
12.5364 37.7066 -8.5626 -1989
12.5399 37.7171 -8.6156 -1983
12.5391 37.7151 -8.6048 -1985
12.5389 37.7141 -8.5946 -1986
12.5401 37.7179 -8.5853 -1983
12.5389 37.7144 -8.5746 -1982
12.5389 37.6856 -8.6136 -1985
12.5194 37.7784 -8.5333 -1990
12.5151 37.7656 -8.5206 -1996
12.5186 37.7761 -8.5131 -2006
12.5189 37.7459 -8.5076 -2017
12.5154 37.7356 -8.5153 -1997
12.5151 37.7349 -8.5251 -1993
12.5306 37.7816 -8.5456 -1990
12.5214 37.7239 -8.5433 -1989
12.5239 37.7311 -8.5151 -2016
12.5341 37.7619 -8.5121 -2023
12.5349 37.7336 -8.5148 -2024
12.5404 37.7504 -8.5681 -1987
12.5409 37.7516 -8.5783 -1985
12.5411 37.7526 -8.5883 -1986
12.5444 37.7624 -8.6006 -1984
12.5406 37.7509 -8.6078 -1983
12.5436 37.7599 -8.6198 -1983
12.5406 37.7511 -8.6278 -1982
12.5201 37.8404 -8.5078 -2009
12.5244 37.8244 -8.5131 -2014
12.5204 37.8126 -8.5206 -1999
12.5211 37.8146 -8.5308 -1992
12.5296 37.8091 -8.5103 -2010
12.5469 37.8306 -8.5663 -1984
12.5504 37.8406 -8.5786 -1990
12.5504 37.8411 -8.5888 -1984
12.5501 37.8401 -8.5983 -1985
12.5484 37.8349 -8.6073 -1982
12.5466 37.8296 -8.6161 -1984
12.5464 37.8289 -8.6258 -1984
12.5416 37.7851 -8.6276 -1980
12.5419 37.7851 -8.6176 -1985
12.5459 37.7974 -8.6101 -1984
12.5459 37.7974 -8.6001 -1986
12.5439 37.7911 -8.5886 -1988
12.5426 37.7879 -8.5778 -1985
12.5446 37.7936 -8.5691 -1987
12.5384 37.8044 -8.5108 -2027
12.5271 37.8926 -8.5086 -2021
12.5296 37.8999 -8.5203 -1998
12.5239 37.8829 -8.5263 -1992
12.5274 37.8621 -8.5326 -1991
12.5239 37.8521 -8.5203 -1993
12.5519 37.9079 -8.6216 -1982
12.5501 37.8711 -8.6246 -1984
12.5501 37.8709 -8.6146 -1981
12.5481 37.8654 -8.6031 -1987
12.5511 37.8739 -8.5951 -1988
12.5514 37.8754 -8.5853 -1984
12.5494 37.8689 -8.5738 -1987
12.5406 37.9024 -8.5118 -2021
12.5396 37.8706 -8.5536 -1992
12.5451 37.8561 -8.5608 -1984
12.4716 38.0316 -8.6206 -1979
12.4626 38.0039 -8.6243 -1989
12.4696 37.9934 -8.6268 -1990
12.5356 37.9481 -8.5396 -1993
12.5294 37.9289 -8.5251 -1997
12.5344 37.9441 -8.5186 -2003
12.5599 37.9611 -8.6248 -1987
12.5561 37.9494 -8.6121 -1990
12.5581 37.9554 -8.6036 -1987
12.5541 37.9436 -8.5908 -1989
12.5559 37.9489 -8.5821 -1988
12.5569 37.9514 -8.5726 -1982
12.5549 37.9166 -8.5738 -1983
12.5559 37.9199 -8.5843 -1987
12.5524 37.9091 -8.5918 -1988
12.5546 37.9159 -8.6033 -1988
12.5564 37.9214 -8.6146 -1986
12.5399 37.9609 -8.5121 -2018
12.5516 37.9671 -8.5553 -1988
12.5494 37.9291 -8.5576 -1987
12.5376 38.0151 -8.5231 -1994
12.5369 37.9821 -8.5151 -2002
12.5346 37.9749 -8.5233 -1994
12.5349 37.9759 -8.5336 -1993
12.5584 38.0169 -8.6251 -1992
12.5636 38.0329 -8.6186 -1987
12.5644 38.0356 -8.6093 -1989
12.5631 38.0311 -8.5983 -1986
12.5639 38.0339 -8.5788 -1987
12.5584 38.0171 -8.5651 -1986
12.5616 37.9974 -8.5721 -1988
12.5606 37.9944 -8.5813 -1988
12.5616 37.9974 -8.5921 -1986
12.5621 37.9984 -8.6023 -1988
12.5609 37.9949 -8.6116 -1989
12.5594 37.9906 -8.6206 -1986
12.5434 38.0331 -8.5371 -1994
12.5394 38.0211 -8.5143 -1999
12.5439 38.0344 -8.5073 -2011
12.5466 38.0114 -8.5116 -2014
12.5531 38.0009 -8.5111 -2023
12.4649 38.0711 -8.6191 -1989
12.4559 38.0439 -8.6228 -1982
12.4636 38.0371 -8.6226 -1984
12.4691 38.0534 -8.6163 -1983
12.4754 38.0429 -8.6133 -1985
12.5376 38.0771 -8.5186 -1999
12.5661 38.0706 -8.5751 -1987
12.5654 38.0689 -8.5846 -1990
12.5666 38.0721 -8.5956 -1988
12.5661 38.0709 -8.6051 -1990
12.5674 38.0744 -8.6161 -1989
12.5646 38.0661 -8.6241 -1989
12.5664 38.0414 -8.5906 -1986
12.5401 38.0849 -8.5306 -1992
12.5499 38.0846 -8.5041 -2025
12.5444 38.0684 -8.5106 -2021
12.5386 38.0506 -8.5166 -2001
12.5411 38.0586 -8.5286 -1991
12.5536 38.0961 -8.5471 -1992
12.5616 38.0574 -8.5621 -1986
12.5686 38.1414 -8.5673 -1987
12.5711 38.1496 -8.5793 -1988
12.5739 38.1576 -8.5911 -1992
12.5711 38.1491 -8.5993 -1991
12.5734 38.1559 -8.6108 -1991
12.5694 38.1439 -8.6181 -1989
12.5686 38.1414 -8.6276 -1986
12.5661 38.1019 -8.6228 -1987
12.5684 38.1086 -8.6141 -1990
12.5686 38.1094 -8.6043 -1988
12.5734 38.1244 -8.5976 -1993
12.5684 38.1086 -8.5841 -1992
12.5716 38.1184 -8.5763 -1990
12.5454 38.1311 -8.5031 -2015
12.5451 38.1309 -8.5131 -2002
12.5446 38.1289 -8.5228 -1993
12.5461 38.1031 -8.5143 -2007
12.5516 38.1196 -8.5078 -2017
12.5676 38.1064 -8.5636 -1986
12.5766 38.2261 -8.6253 -1984
12.5771 38.1971 -8.6266 -1987
12.5734 38.1859 -8.6138 -1985
12.5751 38.1911 -8.6051 -1988
12.5729 38.1841 -8.5933 -1991
12.5746 38.1899 -8.5843 -1990
12.5759 38.1936 -8.5751 -1987
12.5496 38.2069 -8.5188 -1998
12.5526 38.2154 -8.5311 -1994
12.5619 38.2126 -8.5438 -1990
12.5519 38.1819 -8.5268 -1990
12.5479 38.1704 -8.5143 -1998
12.5569 38.1971 -8.5101 -2016
12.5569 38.1659 -8.5411 -1989
12.5751 38.2219 -8.5638 -1986
12.5671 38.1671 -8.5591 -1992
12.5816 38.2729 -8.6281 -1983
12.5809 38.2704 -8.6173 -1987
12.5801 38.2684 -8.6068 -1987
12.5851 38.2831 -8.6001 -1989
12.5804 38.2689 -8.5868 -1989
12.5824 38.2751 -8.5781 -1988
12.5794 38.2659 -8.5658 -1984
12.5794 38.2349 -8.5768 -1987
12.5786 38.2321 -8.5863 -1988
12.5804 38.2374 -8.5976 -1989
12.5774 38.2284 -8.6058 -1986
12.5784 38.2319 -8.6166 -1986
12.5606 38.2709 -8.5383 -1993
12.5544 38.2516 -8.5241 -1995
12.5529 38.2471 -8.5128 -2004
12.5626 38.2766 -8.5093 -2023
12.5569 38.2286 -8.5133 -2006
12.5724 38.2756 -8.5546 -1990
14.0551 37.7759 -8.6298 -1976
14.0541 37.7731 -8.6393 -1974
14.0526 37.7414 -8.6306 -1974
13.8684 37.9399 -8.6831 -1961
13.8454 38.0189 -8.6996 -1958
13.8566 37.9931 -8.6928 -1983
13.8596 37.9736 -8.6893 -1967
13.3901 38.0969 -8.7293 -1965
13.3736 38.1094 -8.7318 -1962
13.3826 38.1056 -8.7318 -1956
13.4281 38.1481 -8.7396 -1963
13.4754 38.1356 -8.7368 -1943
13.5549 38.0701 -8.7183 -1992
13.5686 38.0791 -8.7196 -1996
13.5661 38.1581 -8.7358 -1954
13.5689 38.1394 -8.7276 -1968
13.5766 38.1309 -8.7221 -1984
13.5864 38.1291 -8.7208 -1981
13.6076 38.1601 -8.7311 -1973
13.6031 38.1189 -8.7283 -1962
13.3681 38.2109 -8.7421 -1954
13.3736 38.1966 -8.7426 -1933
13.3886 38.2106 -8.7426 -1947
13.3894 38.1826 -8.7391 -1981
13.4109 38.2154 -8.7461 -1969
13.4201 38.2119 -8.7458 -1969
13.4274 38.1751 -8.7426 -1961
13.4506 38.1831 -8.7443 -1973
13.4744 38.2201 -8.7513 -1972
13.4756 38.1941 -8.7476 -1937
13.4904 38.2076 -8.7398 -1935
13.4804 38.1794 -8.7436 -1930
13.3679 38.2686 -8.7318 -1961
13.3651 38.2606 -8.7401 -1962
13.3679 38.2399 -8.7388 -1984
13.3806 38.2764 -8.7368 -1979
13.3926 38.2809 -8.7378 -1972
13.3779 38.2391 -8.7383 -1968
13.3854 38.2301 -8.7401 -1974
13.4004 38.2734 -8.7396 -1946
13.4059 38.2889 -8.7328 -1953
13.4139 38.2824 -8.7388 -1941
13.3984 38.2381 -8.7388 -1971
13.4109 38.2439 -8.7428 -1963
13.4259 38.2869 -8.7423 -1921
13.4359 38.2866 -8.7521 -1932
13.4461 38.2859 -8.7421 -1965
13.4444 38.2519 -8.7546 -1968
13.4524 38.2464 -8.7486 -1938
13.4646 38.2811 -8.7463 -1936
13.4736 38.2769 -8.7486 -1933
13.4594 38.2369 -8.7496 -1963
13.4754 38.2534 -8.7501 -1939
13.4851 38.2811 -8.7461 -1930
13.4866 38.2549 -8.7491 -1953
13.4951 38.1914 -8.7393 -1919
13.5116 38.2089 -8.7416 -1936
13.5034 38.1854 -8.7463 -1847
13.5384 38.2261 -8.7466 -1933
13.5166 38.1644 -8.7426 -1927
13.5389 38.1991 -8.7428 -1919
13.5379 38.1671 -8.7421 -1930
13.5529 38.1809 -8.7401 -1934
13.5584 38.2246 -8.7451 -1926
13.5626 38.2081 -8.7361 -1973
13.5711 38.2024 -8.7246 -1977
13.5681 38.1939 -8.7328 -1970
13.5584 38.1666 -8.7366 -1970
13.5726 38.1764 -8.7298 -1949
13.5761 38.1864 -8.7218 -1957
13.5896 38.1974 -8.7206 -1974
13.5784 38.1661 -8.7236 -1962
13.5914 38.1726 -8.7211 -1973
13.6041 38.2086 -8.7191 -1984
13.6064 38.1851 -8.7233 -1992
13.4916 38.2691 -8.7421 -1953
13.4909 38.2379 -8.7473 -1935
13.4989 38.2601 -8.7421 -1968
13.5069 38.2546 -8.7403 -1956
13.5096 38.2324 -8.7383 -1971
13.5276 38.2836 -8.7398 -1951
13.5306 38.2624 -8.7436 -1946
13.5319 38.2381 -8.7518 -1924
13.5424 38.2676 -8.7481 -1934
13.5484 38.2844 -8.7418 -1926
13.5529 38.2669 -8.7458 -1938
13.5539 38.2416 -8.7423 -1937
13.5566 38.2776 -8.7278 -1971
13.5591 38.2846 -8.7398 -1925
13.5679 38.2806 -8.7408 -1968
13.5714 38.2614 -8.7433 -1972
13.5734 38.2386 -8.7326 -1983
13.5929 38.2631 -8.7283 -1988
13.5961 38.2426 -8.7246 -1984
13.6156 38.2709 -8.7271 -1987
13.6611 38.0796 -8.7183 -1984
13.7206 38.0724 -8.7128 -1946
13.6211 38.1401 -8.7281 -1925
13.6316 38.1411 -8.7263 -1933
13.6369 38.1266 -8.7256 -1968
13.6464 38.1534 -8.7213 -1972
13.6576 38.1554 -8.7103 -1965
13.6546 38.1474 -8.7186 -1944
13.6501 38.1346 -8.7258 -1967
13.6586 38.1301 -8.7291 -1947
13.6621 38.1401 -8.7211 -1938
13.6629 38.1421 -8.7111 -1961
13.6739 38.1434 -8.7071 -1962
13.6714 38.1364 -8.7156 -1944
13.6676 38.1264 -8.7236 -1933
13.6811 38.1356 -8.7208 -1955
13.6841 38.1436 -8.7123 -1957
13.7011 38.1616 -8.7238 -1974
13.6849 38.1161 -8.7236 -1963
13.7044 38.1424 -8.7321 -1943
13.7174 38.1491 -8.7341 -1934
13.7164 38.1186 -8.7218 -1926
13.7216 38.1049 -8.7151 -1936
13.7466 38.0884 -8.7181 -1934
13.7526 38.0756 -8.7111 -1944
13.7601 38.0686 -8.7108 -1924
13.7711 38.0704 -8.7116 -1939
13.7754 38.0524 -8.7098 -1953
13.7969 38.0841 -8.7171 -1961
13.8206 38.0921 -8.7171 -1952
13.8431 38.0411 -8.7018 -1947
13.7496 38.1534 -8.7208 -1967
13.7554 38.1401 -8.7228 -1942
13.7676 38.1174 -8.7103 -1966
13.7734 38.1056 -8.7091 -1937
13.7876 38.1156 -8.7118 -1945
13.8129 38.1561 -8.7233 -1914
13.8479 38.1379 -8.7228 -1938
13.8609 38.1459 -8.7238 -1913
13.8584 38.1111 -8.7171 -1968
13.8691 38.1404 -8.7136 -1963
13.8691 38.1126 -8.7081 -1934
13.6349 38.1786 -8.7268 -1914
13.6489 38.2179 -8.7253 -1917
13.6516 38.1969 -8.7188 -1948
13.6401 38.1649 -8.7218 -1944
13.6646 38.2041 -8.7226 -1942
13.6676 38.1834 -8.7066 -1972
13.6709 38.1646 -8.7061 -1977
13.7124 38.2224 -8.7201 -1975
13.7156 38.2021 -8.7231 -1978
13.7339 38.2244 -8.7406 -1955
13.7419 38.2176 -8.7396 -1943
13.6531 38.2876 -8.7501 -1920
13.6436 38.2326 -8.7443 -1965
13.7094 38.2429 -8.7196 -1973
13.7444 38.2531 -8.7368 -1986
13.7821 38.1871 -8.7306 -1911
13.7926 38.1861 -8.7158 -1965
13.8111 38.2101 -8.7226 -1948
13.8344 38.2154 -8.7266 -1937
13.8429 38.2111 -8.7258 -1975
13.8416 38.2074 -8.7351 -1931
13.8479 38.1964 -8.7356 -1928
13.8549 38.2156 -8.7298 -1938
13.8641 38.2121 -8.7241 -1940
13.8551 38.1871 -8.7286 -1943
13.8604 38.1721 -8.7206 -1944
13.8709 38.2011 -8.7168 -1940
13.8696 38.1701 -8.7191 -1920
13.7549 38.2536 -8.7376 -1990
13.7606 38.2409 -8.7396 -1985
13.7821 38.2726 -8.7433 -1957
13.7986 38.2599 -8.7401 -1961
13.8166 38.2824 -8.7421 -1919
13.8299 38.2326 -8.7283 -1959
13.8599 38.2856 -8.7323 -1970
13.8699 38.2856 -8.7326 -1976
13.8876 37.9086 -8.6708 -1985
13.8969 37.9059 -8.6678 -2011
13.9031 37.8944 -8.6661 -2017
13.9149 37.8976 -8.6671 -2013
13.9371 37.8741 -8.6666 -1989
13.9436 37.8914 -8.6603 -1994
13.9546 37.8946 -8.6496 -1992
13.9426 37.8621 -8.6523 -1988
13.9469 37.8736 -8.6651 -1992
13.9674 37.9006 -8.6641 -1992
13.9549 37.8664 -8.6461 -1984
13.9666 37.8986 -8.6431 -1992
13.9776 37.9004 -8.6393 -1995
13.9666 37.8704 -8.6428 -1988
13.9789 37.9034 -8.6706 -1986
13.9826 37.8856 -8.6513 -1988
13.9821 37.8844 -8.6408 -1984
13.9859 37.8676 -8.6456 -1988
14.0464 37.8356 -8.6553 -1981
14.0576 37.8376 -8.6453 -1976
14.0539 37.8279 -8.6533 -1977
14.0589 37.8131 -8.6413 -1972
14.0589 37.8134 -8.6311 -1973
13.9994 37.9044 -8.6641 -1988
14.0051 37.8914 -8.6663 -1988
14.0004 37.8784 -8.6531 -1988
14.0104 37.8776 -8.6586 -1989
14.0206 37.8771 -8.6653 -1990
14.0416 37.9054 -8.6653 -1985
14.0359 37.8639 -8.6618 -1986
14.0494 37.8999 -8.6598 -1981
14.0546 37.8849 -8.6516 -1985
14.0464 37.8631 -8.6568 -1981
14.0584 37.8679 -8.6526 -1981
14.0614 37.8759 -8.6441 -1983
14.0606 37.8741 -8.6333 -1981
14.0624 37.8506 -8.6381 -1979
13.8774 37.9646 -8.6786 -1961
13.8801 37.9446 -8.6751 -1975
13.8894 37.9414 -8.6733 -1977
13.8991 37.9404 -8.6678 -2005
13.9166 37.9599 -8.6698 -2023
13.9306 37.9126 -8.6726 -1992
13.9376 37.9601 -8.6711 -1991
13.9464 37.9556 -8.6721 -1988
13.9629 37.9721 -8.6643 -1991
13.9529 37.9451 -8.6683 -1988
13.9449 37.9234 -8.6733 -1995
13.9566 37.9266 -8.6581 -1997
13.9539 37.9191 -8.6463 -1996
13.9639 37.9464 -8.6423 -1994
13.9626 37.9429 -8.6313 -1992
13.9644 37.9209 -8.6351 -1991
13.9626 37.9161 -8.6443 -1997
13.9741 37.9191 -8.6373 -1995
13.9791 37.9326 -8.6303 -1997
13.9911 37.9366 -8.6376 -1993
13.9811 37.9096 -8.6618 -1981
13.9914 37.9091 -8.6671 -1990
13.8784 38.0249 -8.6908 -1956
13.8731 37.9811 -8.6838 -1959
13.9026 38.0339 -8.6843 -1968
13.9014 38.0024 -8.6778 -1986
13.9041 37.9814 -8.6723 -1992
13.9344 37.9791 -8.6753 -2001
13.9621 38.0269 -8.6661 -1983
13.9491 37.9914 -8.6681 -1995
13.9736 38.0296 -8.6788 -1989
13.9681 38.0144 -8.6546 -1989
13.9814 38.0224 -8.6451 -1990
13.9954 38.0321 -8.6413 -1996
14.0099 37.9591 -8.6476 -1988
14.0069 37.9249 -8.6486 -1993
14.0144 37.9169 -8.6516 -1988
14.0296 37.9296 -8.6603 -1988
14.0349 37.9156 -8.6638 -1988
14.0471 37.9491 -8.6613 -1986
14.0541 37.9391 -8.6628 -1980
14.0566 37.9196 -8.6543 -1978
14.0624 37.9611 -8.6578 -1980
14.0659 37.9446 -8.6496 -1979
14.0681 37.9504 -8.6406 -1978
14.0684 37.9511 -8.6306 -1978
14.0674 37.9199 -8.6291 -1979
14.0669 37.9184 -8.6388 -1979
14.0674 37.9191 -8.6493 -1980
14.0179 38.0096 -8.6441 -1991
14.0434 38.0231 -8.6608 -1985
14.0451 37.9996 -8.6603 -1982
14.0579 38.0344 -8.6578 -1979
14.0581 38.0069 -8.6578 -1979
14.0499 37.9844 -8.6628 -1981
14.0574 37.9764 -8.6571 -1983
14.0679 38.0334 -8.6536 -1977
14.0681 38.0054 -8.6533 -1978
14.0731 38.0189 -8.6461 -1977
14.0729 38.0181 -8.6356 -1979
14.0689 37.9794 -8.6313 -1976
14.0736 37.9921 -8.6443 -1975
14.0681 37.9769 -8.6511 -1979
13.8724 38.0646 -8.7061 -1952
13.8861 38.0736 -8.7011 -1956
13.9021 38.0604 -8.6918 -1949
13.9389 38.0484 -8.6823 -2018
13.9664 38.0954 -8.6908 -1968
13.9704 38.0771 -8.6873 -1948
13.9771 38.0391 -8.6706 -1985
13.8766 38.1046 -8.7091 -1931
13.8904 38.1136 -8.7071 -1932
13.9279 38.1604 -8.7116 -1889
13.9556 38.1221 -8.6943 -1979
13.9814 38.1359 -8.6898 -1940
13.9894 38.1294 -8.6888 -1940
13.9996 38.0719 -8.6666 -1983
14.0219 38.0771 -8.6503 -1995
14.0271 38.0624 -8.6493 -1993
14.0404 38.0419 -8.6561 -1986
14.0596 38.0939 -8.6576 -1983
14.0544 38.0536 -8.6576 -1981
14.0661 38.0849 -8.6543 -1981
14.0671 38.0591 -8.6531 -1979
14.0749 38.0804 -8.6476 -1977
14.0774 38.0866 -8.6388 -1974
14.0786 38.0906 -8.6293 -1977
14.0769 38.0576 -8.6286 -1976
14.0761 38.0554 -8.6383 -1972
14.0746 38.0514 -8.6476 -1976
14.0289 38.1519 -8.6951 -1977
14.0161 38.1456 -8.6741 -1971
14.0286 38.1511 -8.6643 -1989
14.0419 38.1584 -8.6596 -1988
14.0519 38.1584 -8.6586 -1991
14.0581 38.1469 -8.6583 -1983
14.0569 38.1154 -8.6578 -1984
14.0674 38.1439 -8.6541 -1979
14.0679 38.1166 -8.6523 -1976
14.0789 38.1464 -8.6488 -1978
14.0839 38.1599 -8.6311 -1976
14.0836 38.1326 -8.6346 -1977
14.0809 38.1251 -8.6431 -1971
14.0754 38.1104 -8.6501 -1978
13.8836 38.2084 -8.7176 -1938
13.8901 38.1704 -8.7108 -1952
13.8984 38.1636 -8.7121 -1947
13.9294 38.2206 -8.7213 -1913
13.9216 38.1709 -8.7128 -1911
13.9474 38.2136 -8.7136 -1934
13.9441 38.1751 -8.7076 -1956
13.9541 38.1749 -8.7063 -1928
13.9634 38.1721 -8.7063 -1960
13.9731 38.1696 -8.6951 -1902
13.9849 38.1741 -8.7006 -1946
13.8799 38.2846 -8.7351 -1980
13.9041 38.2366 -8.7251 -1962
13.9191 38.2779 -8.7243 -1970
13.9306 38.2816 -8.7158 -1955
13.9226 38.2594 -8.7211 -1950
13.9314 38.2544 -8.7226 -1950
13.9516 38.2819 -8.7148 -1965
13.9436 38.2599 -8.7201 -1936
13.9441 38.2324 -8.7166 -1919
13.9581 38.2706 -8.7148 -1965
13.9734 38.2851 -8.7093 -1990
13.9626 38.2556 -8.7128 -1954
13.9671 38.2384 -8.7118 -1959
13.9831 38.2819 -8.7113 -1977
13.9889 38.2699 -8.7073 -1971
13.9756 38.2336 -8.7093 -1949
13.9859 38.2334 -8.7101 -1945
13.9939 38.2554 -8.7046 -1974
14.0111 38.2176 -8.6981 -1938
14.0214 38.2166 -8.6983 -1926
14.0234 38.1934 -8.6936 -1961
14.0299 38.2109 -8.6671 -1980
14.0324 38.2179 -8.6788 -1964
14.0231 38.1646 -8.6681 -1980
14.0329 38.1914 -8.6638 -1985
14.0431 38.1906 -8.6631 -1989
14.0544 38.1921 -8.6571 -1983
14.0754 38.2221 -8.6528 -1975
14.0644 38.1926 -8.6563 -1983
14.0664 38.1691 -8.6531 -1979
14.0799 38.2056 -8.6508 -1975
14.0879 38.1991 -8.6361 -1972
14.0839 38.1889 -8.6441 -1974
14.0766 38.1686 -8.6496 -1978
14.0856 38.1646 -8.6426 -1973
14.0154 38.2851 -8.7008 -1948
14.0026 38.2506 -8.7031 -1956
14.0086 38.2391 -8.7051 -1954
14.0246 38.2826 -8.7046 -1939
14.0276 38.2626 -8.6981 -1933
14.0339 38.2506 -8.6956 -1927
14.0421 38.2446 -8.6951 -1936
14.0314 38.2724 -8.6698 -1977
14.0314 38.2726 -8.6903 -1933
14.0379 38.2614 -8.6876 -1929
14.0291 38.2376 -8.6718 -1973
14.0356 38.2556 -8.6656 -1984
14.0534 38.2751 -8.6611 -1984
14.0391 38.2364 -8.6626 -1988
14.0471 38.2296 -8.6621 -1986
14.0599 38.2646 -8.6596 -1988
14.0569 38.2276 -8.6613 -1987
14.0776 38.2841 -8.6536 -1979
14.0644 38.2479 -8.6556 -1984
14.0686 38.2314 -8.6556 -1983
14.0769 38.2539 -8.6503 -1983
14.0879 38.2836 -8.6471 -1974
14.0941 38.2734 -8.6338 -1976
14.0919 38.2669 -8.6423 -1973
14.0849 38.2476 -8.6483 -1975
14.0886 38.2296 -8.6461 -1974
14.0891 38.2306 -8.6361 -1970
14.5736 38.0219 -8.6831 -1963
14.5811 38.0141 -8.6871 -1945
14.5986 38.0314 -8.6871 -1936
14.6196 38.0329 -8.6866 -1850
14.6294 38.0314 -8.6683 -1829
14.6291 38.0309 -8.6786 -1852
14.6376 38.0239 -8.6838 -1886
14.6409 38.0324 -8.6753 -1866
14.4674 38.0989 -8.7086 -1902
14.4101 38.1129 -8.7141 -1939
14.4601 38.1079 -8.7113 -1942
14.4909 38.1606 -8.7126 -1906
14.4984 38.1526 -8.7146 -1932
14.4996 38.1281 -8.7123 -1917
14.5079 38.0949 -8.7076 -1928
14.5391 38.0946 -8.7071 -1944
14.5504 38.0701 -8.7023 -1932
14.5591 38.0924 -8.6968 -1963
14.5636 38.0781 -8.7001 -1947
14.5651 38.0819 -8.6906 -1976
14.5704 38.0674 -8.7008 -1939
14.5766 38.0839 -8.6943 -1965
14.5714 38.0431 -8.6928 -1950
14.5719 38.0994 -8.6843 -1998
14.5826 38.0994 -8.6873 -1994
14.5854 38.0801 -8.6911 -1961
14.6011 38.0936 -8.6888 -1964
14.6119 38.0939 -8.6743 -1915
14.6016 38.0671 -8.6888 -1971
14.6031 38.0436 -8.6793 -1864
14.6061 38.0509 -8.6708 -1879
14.6226 38.0941 -8.6701 -1941
14.6279 38.0814 -8.6666 -1919
14.6131 38.0429 -8.6681 -1868
14.6136 38.0444 -8.6741 -1852
14.6124 38.0406 -8.6836 -1857
14.6211 38.0369 -8.6771 -1837
14.6214 38.0376 -8.6668 -1860
14.6254 38.0481 -8.6588 -1878
14.6316 38.0369 -8.6593 -1855
14.5126 38.1626 -8.7098 -1965
14.5079 38.1224 -8.7103 -1903
14.5156 38.1424 -8.7046 -1952
14.5261 38.1429 -8.6981 -1908
14.5224 38.1326 -8.7061 -1875
14.5319 38.1319 -8.7098 -1848
14.5371 38.1456 -8.7023 -1908
14.5541 38.1609 -8.6981 -1929
14.5461 38.1399 -8.7036 -1926
14.5396 38.1231 -8.7098 -1915
14.5506 38.1251 -8.7036 -1952
14.5564 38.1399 -8.6966 -1950
14.5626 38.1289 -8.6978 -1962
14.5561 38.1116 -8.7043 -1956
14.5626 38.1566 -8.6898 -1956
14.5689 38.1449 -8.6913 -1953
14.5649 38.1076 -8.6898 -1987
14.5741 38.1589 -8.6843 -1931
14.5709 38.1231 -8.6828 -1991
14.5814 38.1506 -8.6788 -1974
14.5846 38.1594 -8.6598 -1966
14.5951 38.1604 -8.6676 -1967
14.5904 38.1481 -8.6751 -1955
14.5751 38.1084 -8.6761 -1988
14.5876 38.1121 -8.6798 -1974
14.5929 38.1259 -8.6726 -1959
14.6004 38.1459 -8.6666 -1961
14.6106 38.1459 -8.6651 -1967
14.6039 38.1284 -8.6713 -1965
14.5989 38.1151 -8.6786 -1959
14.5931 38.1001 -8.6856 -1972
14.6089 38.1139 -8.6831 -1927
14.6134 38.1254 -8.6753 -1944
14.6261 38.1311 -8.6726 -1946
14.6169 38.1071 -8.6876 -1926
14.4264 38.2116 -8.7281 -1924
14.4349 38.2074 -8.7283 -1927
14.4501 38.1919 -8.7303 -1933
14.4724 38.1951 -8.7306 -1910
14.4926 38.2206 -8.7316 -1904
14.4974 38.2056 -8.7231 -1902
14.4314 38.2804 -8.7388 -2005
14.4284 38.2444 -8.7371 -1992
14.4351 38.2624 -8.7308 -1973
14.4409 38.2504 -8.7266 -1939
14.4541 38.2584 -8.7293 -1959
14.4639 38.2841 -8.7248 -1984
14.4679 38.2661 -8.7286 -1981
14.4549 38.2314 -8.7311 -1942
14.4756 38.2594 -8.7353 -1896
14.4796 38.2696 -8.7273 -1968
14.4871 38.2894 -8.7213 -1987
14.4909 38.2719 -8.7203 -1964
14.4836 38.2529 -8.7263 -1895
14.4801 38.2436 -8.7346 -1879
14.4906 38.2436 -8.7313 -1870
14.4976 38.2619 -8.7251 -1913
14.5059 38.2836 -8.7193 -1968
14.5039 38.2506 -8.7281 -1908
14.5191 38.2071 -8.7166 -1946
14.5364 38.2249 -8.7136 -1961
14.5371 38.1989 -8.7071 -1967
14.5489 38.2026 -8.7013 -1937
14.5564 38.1961 -8.7033 -1944
14.5661 38.2214 -8.6988 -1957
14.5614 38.1804 -8.6921 -1946
14.5734 38.1844 -8.6858 -1936
14.5729 38.1834 -8.6751 -1951
14.5849 38.1869 -8.6598 -1957
14.5794 38.1721 -8.6666 -1961
14.5756 38.1629 -8.6748 -1955
14.5866 38.1644 -8.6713 -1981
14.5929 38.1809 -8.6543 -1954
14.6014 38.1766 -8.6506 -1960
14.5969 38.1649 -8.6581 -1961
14.6091 38.1681 -8.6613 -1964
14.6226 38.1769 -8.6616 -1969
14.6281 38.1641 -8.6736 -1948
14.5146 38.2789 -8.7243 -1941
14.5124 38.2451 -8.7218 -1894
14.5229 38.2731 -8.7176 -1922
14.5389 38.2874 -8.7106 -1942
14.5296 38.2631 -8.7153 -1911
14.5199 38.2371 -8.7196 -1934
14.5351 38.2494 -8.7158 -1938
14.5396 38.2616 -8.7081 -1947
14.5419 38.2674 -8.6991 -1915
14.5549 38.2739 -8.6936 -1941
14.5491 38.2586 -8.7006 -1938
14.5451 38.2481 -8.7086 -1931
14.5501 38.2336 -8.7046 -1947
14.5596 38.2581 -8.6996 -1927
14.5684 38.2814 -8.6946 -1955
14.5649 38.2446 -8.7006 -1954
14.5446 38.2746 -8.6901 -1955
14.5769 38.2756 -8.6973 -1960
14.5916 38.2886 -8.7036 -1939
14.5956 38.2699 -8.6918 -1875
14.5861 38.2449 -8.6966 -1939
14.5974 38.2746 -8.6826 -1864
14.5941 38.2389 -8.6773 -1926
14.6101 38.2814 -8.6763 -1913
14.6181 38.2741 -8.6693 -1944
14.6314 38.2814 -8.6668 -1969
14.6429 38.0931 -8.6586 -1943
14.6371 38.1316 -8.6683 -1939
14.6494 38.1369 -8.6586 -1945
14.6396 38.1116 -8.6631 -1934
14.6469 38.2131 -8.6743 -1966
14.6489 38.1901 -8.6756 -1939
14.6624 38.1979 -8.6728 -1948
14.6441 38.2886 -8.6656 -1971
14.6444 38.2606 -8.6718 -1971
14.6859 38.2866 -8.6768 -1964
14.6811 38.2741 -8.6843 -1942
14.6921 38.2754 -8.6801 -1945
14.6971 38.2879 -8.6726 -1962
13.9889 37.2691 -8.5141 -2004
13.9901 37.2454 -8.5121 -2006
13.9914 37.3031 -8.5241 -1989
13.9936 37.3094 -8.5156 -1999
13.9964 37.3704 -8.5298 -1988
13.9981 37.3751 -8.5206 -2000
13.9951 37.3394 -8.5093 -2004
13.9974 37.3454 -8.5206 -1993
13.9949 37.3381 -8.5291 -1991
14.0004 37.2996 -8.5108 -2021
14.0029 37.3879 -8.5441 -1986
14.0004 37.3531 -8.5426 -1987
14.0056 37.3414 -8.5126 -2019
14.0064 37.4521 -8.5376 -1988
14.0026 37.4419 -8.5248 -1987
14.0084 37.4571 -8.5183 -1999
14.0064 37.4521 -8.5068 -2025
14.0049 37.4206 -8.5156 -1998
14.0031 37.4156 -8.5246 -1993
14.0011 37.4104 -8.5333 -1990
14.0081 37.4291 -8.5476 -1988
14.0084 37.4026 -8.5168 -2013
14.0306 37.4896 -8.5716 -1987
14.0106 37.5184 -8.5398 -1986
14.0101 37.5166 -8.5293 -1987
14.0141 37.5279 -8.5216 -1998
14.0119 37.4949 -8.5098 -2024
14.0049 37.4764 -8.5158 -2004
14.0044 37.4749 -8.5256 -1988
14.0054 37.4779 -8.5363 -1984
14.0234 37.5256 -8.5573 -1986
14.0194 37.4866 -8.5556 -1988
14.0366 37.5614 -8.5756 -1985
14.0444 37.5819 -8.5903 -1979
14.0376 37.5354 -8.5771 -1983
14.0136 37.5806 -8.5398 -1989
14.0119 37.5761 -8.5286 -1984
14.0126 37.5779 -8.5188 -1992
14.0134 37.5521 -8.5146 -2004
14.0104 37.5444 -8.5231 -1987
14.0114 37.5471 -8.5338 -1982
14.0226 37.5776 -8.5511 -1990
14.0289 37.5674 -8.5613 -1986
14.0196 37.5421 -8.5146 -2021
14.0441 37.6346 -8.5741 -1981
14.0441 37.6346 -8.5843 -1979
14.0441 37.6346 -8.5946 -1979
14.0481 37.6454 -8.6071 -1984
14.0441 37.6079 -8.6011 -1982
14.0461 37.6131 -8.5921 -1978
14.0441 37.6081 -8.5808 -1976
14.0181 37.6486 -8.5273 -1986
14.0186 37.6499 -8.5173 -2001
14.0161 37.6151 -8.5173 -1997
14.0136 37.6084 -8.5258 -1984
14.0161 37.6151 -8.5376 -1983
14.0371 37.6434 -8.5646 -1984
14.0216 37.6021 -8.5141 -2008
14.0481 37.7011 -8.5773 -1982
14.0526 37.7129 -8.5901 -1978
14.0489 37.7031 -8.5981 -1977
14.0519 37.7114 -8.6101 -1980
14.0509 37.7084 -8.6196 -1976
14.0469 37.6701 -8.6116 -1980
14.0491 37.6761 -8.6028 -1980
14.0531 37.6864 -8.5948 -1979
14.0466 37.6691 -8.5806 -1982
14.0226 37.7156 -8.5368 -1983
14.0291 37.7056 -8.5128 -2013
14.0236 37.6914 -8.5196 -1990
14.0201 37.6814 -8.5273 -1982
14.0229 37.6889 -8.5391 -1979
14.0404 37.7086 -8.5616 -1984
14.0211 37.6569 -8.5393 -1982
14.0226 37.6606 -8.5096 -2021
14.0379 37.6736 -8.5611 -1986
14.0554 37.7761 -8.5791 -1985
14.0549 37.7751 -8.5891 -1982
14.0549 37.7749 -8.5991 -1982
14.0566 37.7796 -8.6103 -1981
14.0556 37.7769 -8.6201 -1979
14.0531 37.7429 -8.6208 -1981
14.0559 37.7499 -8.6121 -1983
14.0516 37.7384 -8.5991 -1978
14.0526 37.7414 -8.5896 -1978
14.0521 37.7401 -8.5791 -1980
14.0361 37.7796 -8.5106 -2020
14.0301 37.7634 -8.5171 -1996
14.0246 37.7489 -8.5238 -1988
14.0259 37.7524 -8.5346 -1978
14.0384 37.7581 -8.5566 -1985
14.0241 37.7199 -8.5276 -1985
14.0259 37.7244 -8.5183 -1999
14.0319 37.7406 -8.5118 -2022
14.0466 37.7531 -8.5638 -1982
14.0584 37.8396 -8.5746 -1985
14.0594 37.8426 -8.5856 -1980
14.0579 37.8104 -8.6201 -1978
14.0576 37.8096 -8.6096 -1979
14.0581 37.8111 -8.5996 -1986
14.0571 37.8086 -8.5886 -1985
14.0569 37.8076 -8.5781 -1980
14.0376 37.8396 -8.5096 -2013
14.0339 37.8294 -8.5173 -1996
14.0321 37.8246 -8.5263 -1986
14.0306 37.8204 -8.5353 -1983
14.0396 37.8176 -8.5486 -1985
14.0289 37.7884 -8.5318 -1982
14.0266 37.7826 -8.5206 -1987
14.0319 37.7964 -8.5136 -2000
14.0371 37.8109 -8.5066 -2025
14.0376 37.7841 -8.5521 -1986
14.0606 37.8741 -8.5921 -1981
14.0619 37.8771 -8.5723 -1982
14.0609 37.8464 -8.6168 -1982
14.0619 37.8489 -8.6276 -1983
14.0406 37.9026 -8.5228 -1993
14.0374 37.8941 -8.5311 -1985
14.0341 37.8851 -8.5391 -1980
14.0474 37.8949 -8.5563 -1986
14.0316 37.8521 -8.5363 -1981
14.0344 37.8596 -8.5278 -1986
14.0364 37.8646 -8.5188 -1992
14.0489 37.8986 -8.5163 -2020
14.0491 37.8704 -8.5568 -1988
14.0629 37.9071 -8.5753 -1983
14.0654 37.8866 -8.6258 -1982
14.0629 37.8801 -8.6141 -1982
14.0634 37.8814 -8.6041 -1986
14.0636 37.8821 -8.5838 -1976
14.0629 37.8516 -8.5976 -1982
14.0629 37.8519 -8.6078 -1987
13.9691 37.9341 -8.6281 -1996
14.0406 37.9596 -8.5156 -1992
14.0424 37.9641 -8.5268 -1986
14.0434 37.9669 -8.5376 -1985
14.0416 37.9341 -8.5443 -1986
14.0381 37.9244 -8.5321 -1984
14.0394 37.9279 -8.5228 -1990
14.0466 37.9476 -8.5171 -2002
14.0514 37.9314 -8.5193 -2016
14.0531 37.9364 -8.5608 -1983
14.0696 37.9546 -8.6211 -1983
14.0714 37.9594 -8.6118 -1979
14.0699 37.9556 -8.6006 -1983
14.0691 37.9534 -8.5901 -1979
14.0659 37.9449 -8.5778 -1984
14.0654 37.9144 -8.5871 -1976
14.0649 37.9124 -8.5968 -1978
14.0656 37.9149 -8.6076 -1981
14.0661 37.9159 -8.6178 -1981
14.0449 38.0276 -8.5296 -1981
14.0436 37.9956 -8.5366 -1986
14.0436 37.9956 -8.5263 -1988
14.0421 37.9919 -8.5156 -1991
14.0504 38.0139 -8.5103 -2013
14.0536 37.9944 -8.5133 -2012
14.0736 38.0201 -8.6256 -1981
14.0741 38.0219 -8.6156 -1981
14.0781 38.0324 -8.6076 -1979
14.0731 38.0194 -8.5943 -1979
14.0736 38.0201 -8.5843 -1977
14.0674 38.0039 -8.5703 -1984
14.0669 37.9739 -8.5793 -1980
14.0731 37.9904 -8.5931 -1978
14.0726 37.9894 -8.6031 -1984
14.0681 37.9769 -8.6103 -1981
14.0701 37.9826 -8.6218 -1978
14.0636 38.0214 -8.5598 -1985
14.0496 38.0951 -8.5213 -1985
14.0561 38.0846 -8.5431 -1988
14.0466 38.0586 -8.5271 -1986
14.0499 38.0679 -8.5191 -1983
14.0581 38.0896 -8.5138 -1998
14.0511 38.0444 -8.5131 -2002
14.0494 38.0396 -8.5221 -1989
14.0574 38.0614 -8.5473 -1986
14.0779 38.0881 -8.6186 -1974
14.0774 38.0869 -8.6078 -1975
14.0774 38.0871 -8.5978 -1984
14.0804 38.0954 -8.5893 -1977
14.0749 38.0799 -8.5758 -1980
14.0786 38.0624 -8.5791 -1973
14.0769 38.0574 -8.5881 -1975
14.0791 38.0634 -8.5996 -1979
14.0764 38.0559 -8.6081 -1977
14.0789 38.0629 -8.6198 -1972
14.0681 38.0619 -8.5616 -1981
14.0579 38.1459 -8.5358 -1983
14.0554 38.1394 -8.5243 -1985
14.0616 38.1559 -8.5178 -1993
14.0609 38.1544 -8.5076 -2009
14.0524 38.1029 -8.5128 -1993
14.0569 38.1151 -8.5361 -1982
14.0836 38.1591 -8.6208 -1973
14.0849 38.1624 -8.6113 -1971
14.0839 38.1601 -8.6006 -1981
14.0836 38.1589 -8.5901 -1980
14.0839 38.1601 -8.5801 -1979
14.0819 38.1546 -8.5688 -1981
14.0809 38.1246 -8.5718 -1982
14.0794 38.1209 -8.5811 -1978
14.0846 38.1354 -8.5946 -1978
14.0811 38.1261 -8.6026 -1977
14.0831 38.1309 -8.6138 -1973
14.0814 38.1261 -8.6231 -1973
14.0654 38.1381 -8.5106 -2018
14.0664 38.1121 -8.5088 -2025
14.0616 38.2119 -8.5288 -1986
14.0576 38.2014 -8.5163 -1989
14.0599 38.1801 -8.5111 -1996
14.0571 38.1729 -8.5196 -1984
14.0591 38.1781 -8.5311 -1986
14.0866 38.2241 -8.5836 -1984
14.0889 38.2016 -8.5758 -1980
14.0896 38.2041 -8.5866 -1977
14.0884 38.2006 -8.5958 -1982
14.0874 38.1981 -8.6053 -1982
14.0881 38.1996 -8.6158 -1976
14.0884 38.2009 -8.6263 -1975
14.0664 38.2251 -8.5013 -2020
14.0651 38.1944 -8.5038 -2015
14.0744 38.2196 -8.5503 -1989
14.0799 38.2056 -8.5593 -1980
14.0789 38.1746 -8.5596 -1983
14.1051 38.2171 -8.5018 -2029
14.0891 38.2596 -8.5696 -1976
14.0906 38.2636 -8.5806 -1981
14.0926 38.2694 -8.5921 -1982
14.0916 38.2661 -8.6016 -1976
14.0931 38.2704 -8.6126 -1984
14.0904 38.2626 -8.6211 -1974
14.0906 38.2349 -8.6268 -1973
14.0911 38.2366 -8.6171 -1979
14.0901 38.2339 -8.6061 -1976
14.0919 38.2381 -8.5968 -1975
14.0901 38.2334 -8.5756 -1974
14.0646 38.2776 -8.5301 -1984
14.0654 38.2796 -8.5203 -1985
14.0654 38.2794 -8.5101 -1990
14.0696 38.2624 -8.5058 -2005
14.0654 38.2511 -8.5136 -1987
14.0634 38.2454 -8.5226 -1984
14.0631 38.2446 -8.5328 -1985
14.0741 38.2461 -8.5468 -1985
14.0681 38.2301 -8.5126 -1996
11.9234 38.3344 -8.6458 -1956
11.9261 38.3106 -8.6543 -1948
11.9376 38.3479 -8.6526 -1927
11.9466 38.3456 -8.6501 -1928
11.9446 38.3391 -8.6586 -1897
11.9416 38.2964 -8.6418 -1964
11.9429 38.3009 -8.6326 -1921
11.9594 38.3531 -8.6343 -1909
11.9529 38.2991 -8.6298 -1938
11.9289 38.3846 -8.6408 -1934
11.9309 38.3586 -8.6413 -1954
11.9396 38.3544 -8.6438 -1913
11.9549 38.4034 -8.6448 -1932
11.9559 38.3751 -8.6466 -1914
11.9831 38.3004 -8.6446 -1932
12.0026 38.3299 -8.6586 -1950
12.0094 38.3199 -8.6596 -1948
12.0216 38.3251 -8.6433 -1988
12.0244 38.3034 -8.6493 -1979
12.0754 38.3369 -8.7001 -1951
12.0491 38.3491 -8.6601 -1990
12.0391 38.3176 -8.6631 -1979
12.0506 38.3226 -8.6751 -1920
12.0621 38.3269 -8.6858 -1918
11.9811 38.3906 -8.6403 -1923
11.9819 38.3609 -8.6493 -1964
12.0016 38.3919 -8.6543 -1942
12.0119 38.3931 -8.6553 -1922
12.0286 38.4129 -8.6576 -1861
12.0199 38.3846 -8.6611 -1921
12.0199 38.3536 -8.6571 -1974
12.0379 38.4109 -8.6598 -1888
12.0404 38.3849 -8.6468 -1985
12.0431 38.3631 -8.6528 -1991
11.9521 38.4266 -8.6466 -1956
11.9604 38.5201 -8.6583 -1929
11.9606 38.4864 -8.6536 -1915
11.9804 38.4539 -8.6541 -1911
11.9886 38.4474 -8.6453 -1940
12.0054 38.4366 -8.6561 -1904
12.0196 38.4494 -8.6473 -1890
12.0131 38.4286 -8.6526 -1871
12.0219 38.4246 -8.6521 -1862
12.0301 38.4506 -8.6478 -1890
12.0384 38.4439 -8.6548 -1898
12.0579 38.4746 -8.6641 -1901
12.0779 38.4739 -8.6676 -1946
12.0899 38.4791 -8.6793 -1967
11.9924 38.5239 -8.6616 -1932
12.0271 38.5376 -8.6633 -1937
12.0234 38.4941 -8.6588 -1906
12.0551 38.4971 -8.6568 -1933
12.0704 38.5151 -8.6631 -1956
12.0769 38.5011 -8.6531 -1930
12.0704 38.4811 -8.6586 -1930
12.0899 38.5124 -8.6661 -1949
12.1259 38.3369 -8.7001 -1957
12.1451 38.3341 -8.7091 -1942
12.0974 38.3426 -8.6826 -1939
12.1066 38.3386 -8.6901 -1948
12.1111 38.3214 -8.6898 -1952
12.1339 38.3621 -8.6956 -1952
12.1414 38.3539 -8.7056 -1949
12.1076 38.4071 -8.6836 -1924
12.0936 38.3626 -8.6836 -1931
12.1044 38.3651 -8.6776 -1948
12.1149 38.3649 -8.6858 -1963
12.1241 38.3626 -8.6891 -1946
12.1699 38.4124 -8.7168 -1926
12.1629 38.3576 -8.7123 -1918
12.1811 38.4146 -8.7151 -1936
12.1876 38.4039 -8.7171 -1943
12.1744 38.3621 -8.7176 -1910
12.1856 38.3659 -8.7246 -1890
12.1959 38.3979 -8.7216 -1928
12.2096 38.4101 -8.7221 -1924
12.1971 38.3704 -8.7231 -1924
12.2196 38.3771 -8.7268 -1913
12.2426 38.3226 -8.7176 -1991
12.2711 38.3471 -8.7223 -1925
12.3064 38.3326 -8.7221 -1946
12.3171 38.3019 -8.7151 -1946
12.3436 38.3531 -8.7113 -1937
12.2399 38.4089 -8.7283 -1962
12.2721 38.3839 -8.7236 -1979
12.2964 38.3631 -8.7286 -1960
12.3221 38.4116 -8.7323 -1917
12.0964 38.4689 -8.6981 -1914
12.1036 38.4589 -8.7056 -1919
12.1051 38.4309 -8.7111 -1933
12.1181 38.4721 -8.7103 -1958
12.1374 38.4701 -8.6913 -1960
12.1621 38.4196 -8.7101 -1944
12.1826 38.4524 -8.7158 -1900
12.1896 38.4414 -8.7108 -1942
12.1989 38.4389 -8.7151 -1944
12.2139 38.4554 -8.7243 -1944
12.2174 38.4339 -8.7176 -1934
12.1039 38.4921 -8.6933 -1931
12.1301 38.5434 -8.6943 -1931
12.1304 38.5436 -8.7046 -1921
12.1219 38.5171 -8.7086 -1869
12.1334 38.5211 -8.7113 -1913
12.1424 38.5169 -8.6986 -1931
12.1094 38.5406 -8.6831 -1946
12.1126 38.5201 -8.6896 -1953
12.1169 38.5341 -8.6828 -1933
12.1614 38.5121 -8.7091 -1922
12.1664 38.4959 -8.7093 -1920
12.1754 38.4934 -8.7151 -1931
12.1909 38.5096 -8.7203 -1926
12.1994 38.5371 -8.7163 -1899
12.1959 38.4946 -8.7153 -1916
12.2101 38.5061 -8.7153 -1945
12.2161 38.4939 -8.7173 -1956
12.2274 38.4334 -8.7296 -1894
12.2304 38.4431 -8.7216 -1876
12.2416 38.4784 -8.7196 -1933
12.2406 38.4429 -8.7216 -1939
12.2409 38.4439 -8.7318 -1950
12.2484 38.4356 -8.7243 -1960
12.2509 38.4434 -8.7158 -1964
12.2656 38.4581 -8.7128 -1967
12.2599 38.4399 -8.7188 -1963
12.2536 38.4201 -8.7243 -1960
12.2646 38.4221 -8.7301 -1971
12.2821 38.4771 -8.7323 -1963
12.2839 38.4511 -8.7266 -1936
12.2791 38.4369 -8.7333 -1973
12.2876 38.4321 -8.7241 -1964
12.2904 38.4406 -8.7161 -1950
12.2979 38.4641 -8.7111 -1969
12.3039 38.4494 -8.7156 -1974
12.2989 38.4344 -8.7221 -1939
12.2936 38.4174 -8.7283 -1952
12.3051 38.4224 -8.7311 -1940
12.3071 38.4284 -8.7223 -1930
12.3191 38.4659 -8.7206 -1963
12.3331 38.4776 -8.7243 -1951
12.3264 38.4571 -8.7298 -1943
12.3181 38.4306 -8.7338 -1893
12.3294 38.4341 -8.7271 -1935
12.3406 38.4696 -8.7246 -1959
12.3416 38.4721 -8.7148 -1949
12.3421 38.4444 -8.7173 -1952
12.3419 38.4434 -8.7271 -1941
12.3386 38.4329 -8.7348 -1952
12.3466 38.4259 -8.7378 -1929
12.2366 38.5269 -8.7306 -1941
12.2421 38.5439 -8.7241 -1931
12.2454 38.5226 -8.7276 -1923
12.2611 38.5394 -8.7231 -1936
12.2721 38.5416 -8.7241 -1917
12.2566 38.4926 -8.7231 -1929
12.2656 38.4899 -8.7163 -1965
12.2829 38.5436 -8.7183 -1947
12.2756 38.4891 -8.7098 -1961
12.2849 38.5184 -8.7063 -1959
12.2851 38.4871 -8.7243 -1928
12.2864 38.4904 -8.7151 -1929
12.2901 38.5024 -8.7076 -1954
12.2999 38.5329 -8.7043 -1956
12.3036 38.5129 -8.7101 -1966
12.2966 38.4916 -8.7156 -1959
12.2939 38.4829 -8.7236 -1934
12.3054 38.4876 -8.7063 -1940
12.3186 38.5289 -8.7056 -1944
12.3226 38.5081 -8.7086 -1949
12.3146 38.4834 -8.7131 -1948
12.3244 38.4826 -8.7141 -1949
12.3329 38.5086 -8.7098 -1950
12.3429 38.5396 -8.7066 -1941
12.3469 38.5209 -8.7141 -1900
12.3344 38.4816 -8.7153 -1957
11.9659 38.6011 -8.6453 -1946
11.9621 38.5569 -8.6496 -1958
11.9726 38.5904 -8.6466 -1946
11.9821 38.5899 -8.6536 -1939
11.9699 38.5501 -8.6548 -1936
11.9864 38.5694 -8.6618 -1873
11.9909 38.5844 -8.6551 -1895
12.0041 38.5939 -8.6538 -1899
11.9956 38.5666 -8.6578 -1884
11.9914 38.5531 -8.6651 -1894
12.0049 38.5636 -8.6603 -1908
12.0141 38.5936 -8.6568 -1886
12.0229 38.5904 -8.6646 -1913
12.0091 38.5461 -8.6648 -1910
12.0281 38.5736 -8.6636 -1933
12.0371 38.6031 -8.6601 -1903
12.0594 38.5766 -8.6661 -1901
12.0666 38.5674 -8.6638 -1881
11.9714 38.6519 -8.6476 -1959
11.9754 38.6316 -8.6421 -1969
11.9786 38.6096 -8.6408 -1958
12.0014 38.6519 -8.6573 -1940
12.0096 38.6449 -8.6583 -1936
12.0236 38.6561 -8.6473 -1939
12.0129 38.6224 -8.6501 -1887
12.0221 38.6196 -8.6523 -1854
12.0281 38.6389 -8.6463 -1885
12.0286 38.6081 -8.6586 -1872
12.0329 38.6219 -8.6516 -1876
12.0461 38.6319 -8.6563 -1864
12.0649 38.6586 -8.6701 -1871
12.0526 38.6194 -8.6716 -1909
12.0669 38.6329 -8.6798 -1886
12.0786 38.6379 -8.6696 -1864
12.0829 38.6199 -8.6656 -1895
11.9711 38.6844 -8.6431 -1971
11.9894 38.7099 -8.6503 -1965
11.9969 38.7016 -8.6473 -1977
11.9999 38.6779 -8.6456 -1972
12.0254 38.7289 -8.6436 -1952
12.0179 38.7049 -8.6486 -1961
12.0129 38.6881 -8.6553 -1920
12.0229 38.6869 -8.6573 -1963
12.0261 38.6974 -8.6496 -1970
12.0329 38.7194 -8.6441 -1948
12.0366 38.7314 -8.6363 -1923
12.0446 38.7241 -8.6418 -1900
12.0411 38.7124 -8.6496 -1937
12.0506 38.7106 -8.6521 -1929
12.0541 38.7216 -8.6443 -1925
12.0639 38.7216 -8.6533 -1918
12.0489 38.6729 -8.6528 -1879
12.0616 38.6814 -8.6573 -1838
12.0671 38.6989 -8.6511 -1830
12.0766 38.7294 -8.6476 -1902
12.0796 38.7059 -8.6603 -1916
12.0726 38.6834 -8.6656 -1863
12.0806 38.6769 -8.6796 -1863
11.9856 38.7976 -8.6341 -1918
11.9784 38.7416 -8.6448 -1930
11.9891 38.7759 -8.6421 -1911
11.9976 38.7706 -8.6416 -1958
11.9876 38.7384 -8.6448 -1952
12.0014 38.7481 -8.6486 -1946
12.0139 38.7891 -8.6473 -1950
12.0151 38.7601 -8.6503 -1948
12.0201 38.7429 -8.6498 -1970
12.0366 38.7649 -8.6413 -1910
12.0499 38.7741 -8.6356 -1943
12.0536 38.7526 -8.6378 -1922
12.0794 38.7709 -8.6541 -1944
12.0929 38.7486 -8.6596 -1935
12.1451 38.5584 -8.7096 -1892
12.1486 38.5689 -8.7021 -1877
12.1506 38.5756 -8.6933 -1894
12.1191 38.6051 -8.6768 -1949
12.1136 38.5544 -8.6761 -1950
12.1209 38.5464 -8.6753 -1953
12.1241 38.5571 -8.6678 -1961
12.1386 38.5699 -8.6801 -1946
12.1326 38.5511 -8.6861 -1938
12.1574 38.5646 -8.6991 -1879
12.1671 38.5641 -8.7023 -1884
12.1694 38.5714 -8.6938 -1879
12.1806 38.5731 -8.6923 -1862
12.1786 38.5671 -8.7011 -1891
12.1766 38.5609 -8.7098 -1870
12.1861 38.5586 -8.7133 -1877
12.1866 38.5601 -8.7036 -1895
12.1881 38.5646 -8.6946 -1901
12.1994 38.5691 -8.6918 -1889
12.1971 38.5619 -8.7003 -1916
12.1954 38.5561 -8.7091 -1885
12.1936 38.5511 -8.7181 -1877
12.2064 38.5589 -8.7111 -1899
12.2079 38.5634 -8.7018 -1896
12.2094 38.5681 -8.6928 -1891
12.2184 38.5651 -8.7011 -1908
12.2171 38.5614 -8.7101 -1896
12.2154 38.5561 -8.7191 -1884
12.1571 38.5966 -8.6881 -1946
12.1621 38.5796 -8.6826 -1913
12.1601 38.5731 -8.6911 -1869
12.1714 38.5774 -8.6851 -1889
12.1806 38.6069 -8.6818 -1941
12.1874 38.5944 -8.6868 -1923
12.1921 38.5779 -8.6873 -1892
12.1971 38.5934 -8.6808 -1952
12.2019 38.5774 -8.6833 -1914
12.2141 38.5836 -8.6861 -1929
12.0964 38.6626 -8.6648 -1923
12.0969 38.6304 -8.6768 -1929
12.1141 38.6544 -8.6841 -1921
12.1156 38.6251 -8.6708 -1943
12.1379 38.6319 -8.6833 -1935
12.1481 38.6334 -8.6748 -1934
12.1511 38.6101 -8.6791 -1954
12.1686 38.6649 -8.6811 -1947
12.1681 38.6314 -8.6858 -1947
12.1871 38.6586 -8.6798 -1953
12.1739 38.6171 -8.6808 -1953
12.1944 38.6499 -8.6813 -1945
12.2024 38.6419 -8.6873 -1942
12.2144 38.6474 -8.6828 -1946
12.2141 38.6159 -8.6818 -1951
12.2206 38.5724 -8.6926 -1908
12.2241 38.5506 -8.7153 -1902
12.2261 38.5569 -8.7066 -1910
12.2284 38.5639 -8.6981 -1896
12.2381 38.5629 -8.6926 -1911
12.2381 38.5631 -8.7028 -1909
12.2364 38.5576 -8.7116 -1910
12.2321 38.5439 -8.7186 -1917
12.2426 38.5456 -8.7146 -1927
12.2464 38.5571 -8.7071 -1915
12.2481 38.5626 -8.6983 -1929
12.2584 38.5631 -8.6963 -1929
12.2566 38.5574 -8.7051 -1927
12.2559 38.5554 -8.7148 -1918
12.2544 38.5504 -8.7238 -1882
12.2629 38.5451 -8.7141 -1926
12.2641 38.5491 -8.7048 -1928
12.2681 38.5616 -8.6976 -1924
12.2771 38.5574 -8.6976 -1924
12.2754 38.5516 -8.7063 -1926
12.2746 38.5491 -8.7158 -1910
12.2281 38.5964 -8.6878 -1946
12.2306 38.5709 -8.6896 -1910
12.2351 38.5849 -8.6826 -1936
12.2511 38.6034 -8.6816 -1965
12.2399 38.5679 -8.6836 -1941
12.2511 38.5721 -8.6903 -1943
12.2659 38.5869 -8.6816 -1928
12.2606 38.5701 -8.6878 -1917
12.2684 38.5621 -8.6876 -1929
12.2736 38.5786 -8.6813 -1923
12.2826 38.6066 -8.6773 -1944
12.2791 38.5639 -8.6891 -1922
12.2849 38.5501 -8.7098 -1940
12.2871 38.5569 -8.7013 -1930
12.2909 38.5694 -8.6941 -1929
12.2966 38.5554 -8.6946 -1937
12.2936 38.5456 -8.7023 -1937
12.3084 38.5594 -8.7003 -1940
12.3204 38.5654 -8.6916 -1925
12.3156 38.5509 -8.6986 -1934
12.3151 38.5494 -8.7083 -1953
12.3266 38.5546 -8.7011 -1934
12.3369 38.5529 -8.6986 -1940
12.3351 38.5471 -8.7073 -1931
12.2851 38.5824 -8.6833 -1952
12.2924 38.5734 -8.6848 -1926
12.3036 38.5769 -8.6791 -1933
12.2991 38.5629 -8.6861 -1927
12.3091 38.5616 -8.6906 -1921
12.3116 38.5696 -8.6823 -1930
12.3219 38.6014 -8.6793 -1964
12.3271 38.5864 -8.6863 -1954
12.3269 38.5549 -8.6911 -1942
12.3314 38.5694 -8.6843 -1934
12.3411 38.5991 -8.6808 -1952
12.3436 38.5744 -8.6833 -1941
12.3409 38.5654 -8.6913 -1933
12.2279 38.6589 -8.6813 -1954
12.2241 38.6151 -8.6831 -1959
12.2371 38.6561 -8.6821 -1963
12.2426 38.6416 -8.6881 -1956
12.2466 38.6216 -8.6806 -1965
12.2621 38.6699 -8.6813 -1959
12.2681 38.6574 -8.6836 -1960
12.2624 38.6074 -8.6883 -1954
12.2761 38.6506 -8.6878 -1940
12.2799 38.6306 -8.6813 -1940
12.2976 38.6539 -8.6778 -1952
12.3116 38.6654 -8.6816 -1941
12.3009 38.6321 -8.6843 -1965
12.3036 38.6091 -8.6828 -1952
12.3196 38.6589 -8.6838 -1956
12.3304 38.6611 -8.6778 -1953
12.3156 38.6149 -8.6776 -1955
12.3349 38.6424 -8.6783 -1957
12.3394 38.6251 -8.6848 -1961
12.0951 38.7234 -8.6796 -1940
12.1036 38.7181 -8.6776 -1935
12.1174 38.6956 -8.6813 -1917
12.1341 38.7184 -8.6883 -1904
12.1374 38.6941 -8.6761 -1926
12.1434 38.6829 -8.6841 -1924
12.1589 38.6981 -8.6881 -1937
12.1701 38.7031 -8.6803 -1949
12.1806 38.7034 -8.6796 -1948
12.1831 38.6786 -8.6863 -1950
12.2026 38.7084 -8.6808 -1937
12.2099 38.6991 -8.6821 -1925
12.2186 38.6931 -8.6886 -1936
12.1661 38.7864 -8.6866 -1926
12.1626 38.7441 -8.6876 -1929
12.2039 38.7449 -8.6911 -1944
12.2294 38.6951 -8.6833 -1948
12.2444 38.7109 -8.6826 -1946
12.2544 38.7106 -8.6841 -1950
12.2561 38.6841 -8.6876 -1954
12.2781 38.7209 -8.6826 -1951
12.2799 38.6939 -8.6816 -1959
12.2881 38.6884 -8.6863 -1954
12.2939 38.6751 -8.6811 -1948
12.3104 38.6944 -8.6768 -1945
12.3276 38.7159 -8.6828 -1952
12.3341 38.7044 -8.6838 -1952
12.2846 38.7739 -8.6976 -1956
12.3116 38.7944 -8.6941 -1946
12.3191 38.7864 -8.6983 -1945
12.3134 38.7361 -8.6843 -1962
11.9761 38.7991 -8.6288 -1912
11.9984 38.8061 -8.6386 -1914
12.0111 38.8474 -8.6373 -1931
12.0146 38.8256 -8.6331 -1924
12.0119 38.8164 -8.6416 -1929
12.0289 38.8041 -8.6498 -1942
12.0396 38.8061 -8.6533 -1925
12.0784 38.8004 -8.6513 -1937
12.0024 38.9189 -8.6383 -1960
12.0116 38.9146 -8.6441 -1946
12.0104 38.8774 -8.6413 -1943
12.0464 38.8939 -8.6603 -1934
12.0504 38.8739 -8.6548 -1942
12.0739 38.9164 -8.6676 -1899
12.0804 38.9059 -8.6623 -1913
12.0491 38.9371 -8.6476 -1931
12.0566 38.9264 -8.6571 -1890
12.0679 38.9634 -8.6551 -1892
12.0784 38.9641 -8.6543 -1879
12.0754 38.9549 -8.6626 -1887
12.0846 38.9506 -8.6648 -1872
12.0896 38.9674 -8.6581 -1885
12.0486 39.0011 -8.6586 -1911
12.0571 38.9964 -8.6601 -1885
12.0639 39.0181 -8.6546 -1918
12.0719 39.0099 -8.6533 -1908
12.0786 38.9979 -8.6523 -1901
12.1534 38.8106 -8.6971 -1927
12.1149 38.8184 -8.6648 -1975
12.1961 38.8174 -8.7046 -1951
12.2149 38.8454 -8.7021 -1935
12.1179 38.8616 -8.6668 -1914
12.1614 38.8709 -8.7016 -1965
12.1796 38.8634 -8.7108 -1935
12.2086 38.9216 -8.7066 -1945
12.2106 38.8971 -8.7116 -1956
12.2361 38.8141 -8.6943 -1940
12.2486 38.8221 -8.6996 -1934
12.2636 38.8361 -8.7103 -1916
12.2661 38.8114 -8.6991 -1943
12.2286 38.9206 -8.7173 -1957
12.2386 38.9211 -8.7086 -1940
12.2489 38.9204 -8.7073 -1956
12.2311 38.8636 -8.7051 -1963
12.2509 38.8939 -8.7143 -1956
12.2694 38.9201 -8.7078 -1931
12.3104 38.9199 -8.7191 -1921
12.3306 38.8864 -8.7093 -1950
12.0974 38.9609 -8.6643 -1890
12.1134 38.9446 -8.6701 -1861
12.1316 38.9714 -8.6791 -1898
12.1316 38.9389 -8.6813 -1888
12.1704 38.9649 -8.7233 -1945
12.1686 38.9256 -8.7138 -1936
12.1979 38.9534 -8.7191 -1930
12.2074 38.9516 -8.7203 -1954
12.2164 38.9461 -8.7018 -1947
12.1156 39.0191 -8.6668 -1879
12.1184 38.9941 -8.6743 -1894
12.1351 39.0481 -8.6761 -1886
12.1419 39.0364 -8.6801 -1898
12.1619 39.0359 -8.6926 -1882
12.1789 39.0239 -8.7003 -1952
12.1904 39.0286 -8.7273 -1913
12.1866 39.0164 -8.7141 -1958
12.2066 39.0476 -8.7206 -1898
12.1921 39.0014 -8.7206 -1932
12.2011 38.9981 -8.7198 -1916
12.2159 39.0449 -8.7201 -1874
12.2181 39.0179 -8.7233 -1914
12.2191 38.9896 -8.7186 -1939
12.1594 38.9946 -8.6863 -1895
12.2219 38.9326 -8.7091 -1933
12.2349 38.9404 -8.7116 -1938
12.2419 38.9309 -8.7006 -1922
12.2561 38.9764 -8.7003 -1939
12.2581 38.9496 -8.7036 -1966
12.2709 38.9576 -8.7183 -1938
12.2811 38.9254 -8.7126 -1929
12.3026 38.9594 -8.7276 -1920
12.3216 38.9869 -8.7283 -1926
12.3244 38.9319 -8.7236 -1934
12.3444 38.9631 -8.7296 -1959
12.2416 39.0269 -8.7093 -1914
12.2559 39.0411 -8.7231 -1941
12.2604 39.0211 -8.7193 -1938
12.2991 39.0466 -8.7278 -1894
12.3004 39.0184 -8.7193 -1907
12.3121 39.0234 -8.7241 -1945
12.3294 39.0441 -8.7363 -1955
12.3374 39.0364 -8.7291 -1945
12.3449 39.0291 -8.7228 -1945
12.3359 39.0001 -8.7268 -1879
12.3469 39.0026 -8.7291 -1918
12.0549 39.0546 -8.6646 -1926
12.0664 39.0589 -8.6608 -1921
12.1206 39.1006 -8.6743 -1908
12.1794 39.0921 -8.6948 -1879
12.1839 39.0731 -8.6936 -1889
12.2061 39.1114 -8.6991 -1893
12.1986 39.0871 -8.7038 -1880
12.2094 39.0894 -8.7201 -1906
12.2171 39.0809 -8.7176 -1895
12.1619 39.0679 -8.6903 -1903
12.1734 39.1051 -8.6883 -1908
12.1909 39.0959 -8.6883 -1923
12.1411 39.1329 -8.6846 -1923
12.1724 39.1679 -8.6923 -1941
12.1939 39.1711 -8.6926 -1954
12.1924 39.1336 -8.6938 -1954
12.2101 39.1571 -8.6918 -1957
12.1621 39.1694 -8.6898 -1909
12.1701 39.1271 -8.6898 -1932
12.2251 39.0746 -8.7168 -1909
12.2364 39.1106 -8.7148 -1965
12.2421 39.0941 -8.7198 -1925
12.2369 39.0774 -8.7263 -1875
12.2586 39.1154 -8.7366 -1867
12.2894 39.1136 -8.7296 -1902
12.2956 39.1021 -8.7181 -1918
12.3086 39.1104 -8.7081 -1922
12.3041 39.0959 -8.7153 -1900
12.2959 39.0694 -8.7198 -1931
12.3129 39.0906 -8.7273 -1895
12.3151 39.0976 -8.7186 -1924
12.3256 39.0984 -8.7166 -1881
12.3241 39.0934 -8.7258 -1901
12.3384 39.1069 -8.7323 -1927
12.3379 39.1046 -8.7216 -1879
12.3369 39.1016 -8.7106 -1922
12.3464 39.0979 -8.7171 -1919
12.3446 39.0924 -8.7263 -1897
