1599
19.3956 -2.1477 -8.7875 -1941
19.3424 -2.1419 -8.7528 -1961
19.3544 -2.1432 -8.7478 -1988
19.3679 -2.1447 -8.7433 -1983
19.3389 -2.1502 -8.7813 -1923
19.3844 -2.0934 -8.7398 -1982
19.3986 -2.0952 -8.7355 -1965
19.3971 -2.1039 -8.7360 -1964
19.3844 -2.1024 -8.7408 -1975
19.3891 -2.1119 -8.7395 -1971
19.3964 -2.1212 -8.7358 -1967
19.3821 -2.1197 -8.7398 -1976
19.3696 -2.1272 -8.7420 -1984
19.3829 -2.1287 -8.7375 -1972
19.3976 -2.1304 -8.7335 -1958
19.3964 -2.1389 -8.7353 -1970
19.3824 -2.1372 -8.7395 -1978
19.3666 -2.1354 -8.7430 -1998
19.3829 -2.1464 -8.7395 -1974
19.3951 -2.1477 -8.7345 -1963
19.3326 -2.0262 -8.7450 -1970
19.3126 -2.0242 -8.7463 -1983
19.2734 -2.0289 -8.7455 -1987
19.3269 -2.0432 -8.7615 -1981
19.2741 -2.0377 -8.7480 -1988
19.2971 -2.0489 -8.7610 -1966
19.3226 -2.0517 -8.7620 -1978
19.3316 -2.0617 -8.7678 -1955
19.2996 -2.0582 -8.7635 -1972
19.2861 -2.0569 -8.7680 -1954
19.2756 -2.0644 -8.7723 -1973
19.2851 -2.0654 -8.7663 -1992
19.2964 -2.0664 -8.7608 -1979
19.3189 -2.0777 -8.7698 -1983
19.2899 -2.0747 -8.7670 -1994
19.2821 -2.0737 -8.7740 -1992
19.2761 -2.0732 -8.7818 -1974
19.2774 -2.0732 -8.7928 -1953
19.2771 -2.0819 -8.7965 -1958
19.2781 -2.0822 -8.7863 -1968
19.2794 -2.0822 -8.7765 -1980
19.2879 -2.0832 -8.7698 -1988
19.3199 -2.0867 -8.7738 -1978
19.2874 -2.0302 -8.7413 -1978
19.2889 -2.0304 -8.7315 -1975
19.2924 -2.0309 -8.7228 -1977
19.3046 -2.0322 -8.7178 -1990
19.3171 -2.0334 -8.7128 -1996
19.3544 -2.0284 -8.7443 -1983
19.3414 -2.0447 -8.7473 -1970
19.3381 -2.0444 -8.7563 -1960
19.3414 -2.0537 -8.7600 -1957
19.3436 -2.0539 -8.7505 -1969
19.3561 -2.0552 -8.7455 -1981
19.3696 -2.0657 -8.7435 -1984
19.3514 -2.0637 -8.7455 -1981
19.3446 -2.0629 -8.7530 -1963
19.3451 -2.0632 -8.7635 -1945
19.3381 -2.0709 -8.7690 -1960
19.3659 -2.0739 -8.7710 -1961
19.3466 -2.0719 -8.7518 -1968
19.3541 -2.0727 -8.7448 -1983
19.3774 -2.0752 -8.7448 -1980
19.3764 -2.0839 -8.7438 -1982
19.3614 -2.0822 -8.7473 -1991
19.3459 -2.0807 -8.7508 -1969
19.3871 -2.0849 -8.7798 -1931
19.3746 -2.0837 -8.7848 -1939
19.3614 -2.0292 -8.7268 -1992
19.3509 -2.0282 -8.7325 -1984
19.3801 -2.0399 -8.7308 -1984
19.3884 -2.0497 -8.7373 -1976
19.3699 -2.0477 -8.7393 -1981
19.3489 -2.0454 -8.7403 -1987
19.3741 -2.0572 -8.7430 -1984
19.3911 -2.0589 -8.7403 -1975
19.3866 -2.0674 -8.7405 -1977
19.3894 -2.0764 -8.7395 -1974
19.3879 -2.0852 -8.7383 -1975
19.2054 -1.9607 -8.7563 -1963
19.1531 -1.9642 -8.7635 -1910
19.1734 -1.9662 -8.7623 -1942
19.1899 -1.9679 -8.7593 -1957
19.2061 -1.9694 -8.7563 -1955
19.2029 -1.9782 -8.7535 -1967
19.1926 -1.9772 -8.7593 -1961
19.1749 -1.9752 -8.7618 -1956
19.1586 -1.9737 -8.7648 -1913
19.1506 -1.9812 -8.7648 -1938
19.1691 -1.9832 -8.7628 -1940
19.1891 -1.9852 -8.7613 -1966
19.2016 -1.9864 -8.7565 -1948
19.2059 -1.9957 -8.7575 -1949
19.1936 -1.9944 -8.7625 -1948
19.1726 -1.9924 -8.7635 -1955
19.1529 -1.9902 -8.7648 -1965
19.1664 -2.0002 -8.7635 -1957
19.1871 -2.0022 -8.7625 -1946
19.2011 -2.0037 -8.7583 -1948
19.2019 -2.0124 -8.7585 -1950
19.1886 -2.0112 -8.7630 -1960
19.1701 -2.0092 -8.7650 -1944
19.1474 -2.0069 -8.7650 -1934
19.1549 -2.0164 -8.7653 -1954
19.1739 -2.0184 -8.7633 -1950
19.1924 -2.0204 -8.7613 -1950
19.2014 -2.0212 -8.7548 -1950
19.2269 -1.9629 -8.7453 -1960
19.2154 -1.9617 -8.7505 -1947
19.2179 -1.9707 -8.7510 -1950
19.2281 -1.9717 -8.7453 -1938
19.2726 -1.9762 -8.7443 -1981
19.2296 -1.9809 -8.7448 -1917
19.2161 -1.9794 -8.7490 -1936
19.2129 -1.9877 -8.7510 -1952
19.2251 -1.9889 -8.7463 -1934
19.2426 -1.9907 -8.7435 -1939
19.2441 -1.9997 -8.7438 -1944
19.2249 -1.9977 -8.7455 -1954
19.2129 -1.9964 -8.7505 -1932
19.2114 -2.0047 -8.7525 -1929
19.2229 -2.0059 -8.7470 -1938
19.2389 -2.0077 -8.7438 -1951
19.2224 -2.0147 -8.7470 -1942
19.2109 -2.0134 -8.7523 -1933
19.2111 -2.0222 -8.7488 -1950
19.2429 -1.9647 -8.7423 -1952
19.2436 -1.9734 -8.7418 -1945
19.2454 -1.9824 -8.7415 -1954
19.2631 -1.9929 -8.7423 -1981
19.2636 -2.0017 -8.7423 -1987
19.2514 -2.0089 -8.7390 -1981
19.2504 -2.0177 -8.7390 -1979
19.2339 -2.0159 -8.7418 -1943
19.1756 -1.8969 -8.7625 -1948
19.1954 -1.8989 -8.7610 -1961
19.2069 -1.8999 -8.7558 -1940
19.1966 -1.9074 -8.7613 -1943
19.1764 -1.9054 -8.7625 -1930
19.1581 -1.9037 -8.7645 -1925
19.1599 -1.9127 -8.7643 -1935
19.1811 -1.9147 -8.7635 -1942
19.1994 -1.9167 -8.7613 -1957
19.2091 -1.9177 -8.7553 -1959
19.2021 -1.9257 -8.7613 -1955
19.1841 -1.9239 -8.7633 -1962
19.1646 -1.9219 -8.7650 -1928
19.1534 -1.9294 -8.7643 -1918
19.1724 -1.9314 -8.7625 -1925
19.1921 -1.9334 -8.7610 -1963
19.2056 -1.9347 -8.7568 -1959
19.2084 -1.9434 -8.7560 -1949
19.1981 -1.9424 -8.7615 -1955
19.1824 -1.9407 -8.7648 -1947
19.1579 -1.9384 -8.7640 -1958
19.1494 -1.9464 -8.7618 -1939
19.1729 -1.9487 -8.7620 -1954
19.1906 -1.9507 -8.7598 -1967
19.2074 -1.9522 -8.7568 -1952
19.1941 -1.9597 -8.7618 -1946
19.1716 -1.9574 -8.7620 -1942
19.1526 -1.9554 -8.7638 -1937
19.2661 -1.8969 -8.7495 -1964
19.2189 -1.9012 -8.7508 -1947
19.2331 -1.9027 -8.7468 -1956
19.2316 -1.9109 -8.7458 -1944
19.2191 -1.9097 -8.7505 -1945
19.2099 -1.9087 -8.7568 -1967
19.2159 -1.9182 -8.7478 -1954
19.2314 -1.9197 -8.7443 -1938
19.2339 -1.9289 -8.7443 -1952
19.2206 -1.9274 -8.7488 -1952
19.2101 -1.9264 -8.7543 -1959
19.2154 -1.9357 -8.7505 -1962
19.2271 -1.9369 -8.7453 -1951
19.2471 -1.9389 -8.7438 -1934
19.2306 -1.9457 -8.7453 -1951
19.2189 -1.9444 -8.7503 -1950
19.2146 -1.9529 -8.7495 -1942
19.2291 -1.9544 -8.7458 -1955
19.2476 -1.9039 -8.7428 -1950
19.2441 -1.9122 -8.7410 -1956
19.2494 -1.9217 -8.7420 -1959
19.2509 -1.9304 -8.7415 -1967
19.2664 -1.9409 -8.7420 -1983
19.2471 -1.9474 -8.7423 -1929
19.2466 -1.9562 -8.7430 -1947
19.2696 -1.9587 -8.7430 -1986
19.3091 -1.9627 -8.7503 -1963
19.3066 -1.9712 -8.7503 -1969
19.2731 -1.9677 -8.7455 -1990
19.3094 -1.9802 -8.7505 -1975
19.2986 -1.9879 -8.7450 -1971
19.2796 -1.9859 -8.7468 -1982
19.3279 -2.0084 -8.7508 -1974
19.3014 -2.0057 -8.7493 -1988
19.2919 -2.0132 -8.7468 -1998
19.3161 -2.0157 -8.7473 -1981
19.2831 -2.0209 -8.7435 -1976
19.3149 -1.9632 -8.7425 -1967
19.3061 -1.9622 -8.7280 -1972
19.3104 -1.9627 -8.7193 -1979
19.3164 -1.9632 -8.7115 -1962
19.3224 -1.9639 -8.7038 -1979
19.3191 -1.9724 -8.7040 -1966
19.3131 -1.9717 -8.7118 -1964
19.3099 -1.9714 -8.7205 -1968
19.3011 -1.9704 -8.7270 -1966
19.3076 -1.9712 -8.7403 -1970
19.3106 -1.9802 -8.7405 -1971
19.3026 -1.9794 -8.7263 -1977
19.3079 -1.9799 -8.7183 -1968
19.3116 -1.9802 -8.7093 -1962
19.3204 -1.9812 -8.7025 -1975
19.3154 -1.9897 -8.7213 -1982
19.3079 -1.9889 -8.7283 -1977
19.2976 -1.9879 -8.7340 -1980
19.2869 -1.9952 -8.7425 -1973
19.3074 -1.9974 -8.7413 -1983
19.3244 -1.9992 -8.7385 -1979
19.3391 -2.0097 -8.7455 -1969
19.3379 -2.0179 -8.7465 -1969
19.3986 -1.9627 -8.7378 -1978
19.3729 -1.9599 -8.7368 -1987
19.3924 -1.9799 -8.7263 -1966
19.3836 -1.9967 -8.7310 -1977
19.3489 -1.9932 -8.7260 -1985
19.3466 -2.0014 -8.7380 -1971
19.3631 -2.0032 -8.7348 -1977
19.3949 -2.0064 -8.7385 -1973
19.3946 -2.0154 -8.7393 -1973
19.3621 -2.0119 -8.7350 -1976
19.3566 -2.0114 -8.7430 -1963
19.3539 -2.0197 -8.7433 -1972
19.3554 -2.0197 -8.7333 -1973
19.3844 -2.0229 -8.7358 -1978
19.3344 -1.9034 -8.7598 -2011
19.3064 -1.9009 -8.7575 -1993
19.2749 -1.9067 -8.7445 -1992
19.3184 -1.9109 -8.7538 -2007
19.2739 -1.9149 -8.7443 -1992
19.2801 -1.9247 -8.7453 -1984
19.3096 -1.9277 -8.7480 -1972
19.3351 -1.9302 -8.7490 -1960
19.3191 -1.9374 -8.7518 -1989
19.2861 -1.9339 -8.7473 -1987
19.2941 -1.9437 -8.7440 -1979
19.3236 -1.9467 -8.7468 -1995
19.2954 -1.9522 -8.7435 -1972
19.2789 -1.9504 -8.7465 -1987
19.3006 -1.9092 -8.7353 -1983
19.3109 -1.9102 -8.7293 -1984
19.3154 -1.9107 -8.7208 -1988
19.3324 -1.9124 -8.7180 -2000
19.3334 -1.9209 -8.7193 -1993
19.3321 -1.9209 -8.7290 -1990
19.3131 -1.9189 -8.7308 -1986
19.3004 -1.9177 -8.7355 -1978
19.2941 -1.9172 -8.7430 -1971
19.3191 -1.9547 -8.7230 -1992
19.3109 -1.9537 -8.7298 -1977
19.3014 -1.9527 -8.7358 -1982
19.3571 -1.8972 -8.7600 -1945
19.3564 -1.8972 -8.7493 -1942
19.3709 -1.8987 -8.7453 -1981
19.3744 -1.9074 -8.7463 -1997
19.3564 -1.9057 -8.7488 -1950
19.3529 -1.9054 -8.7575 -1944
19.3481 -1.9314 -8.7443 -1967
19.3509 -1.9404 -8.7453 -1965
19.3366 -1.9392 -8.7493 -1978
19.3441 -1.9487 -8.7455 -1969
19.3871 -1.9002 -8.7420 -1978
19.3864 -1.9087 -8.7413 -1982
19.3839 -1.9174 -8.7308 -1998
19.3751 -1.9252 -8.7275 -2008
19.3619 -1.9327 -8.7400 -1975
19.3604 -1.9327 -8.7288 -1979
19.3974 -1.9364 -8.7348 -1979
19.3741 -1.9429 -8.7348 -1990
19.3599 -1.9414 -8.7388 -1970
19.3599 -1.9502 -8.7420 -1965
19.3709 -1.9514 -8.7365 -1986
19.3989 -1.9542 -8.7385 -1976
19.3879 -2.0939 -8.6253 -1959
19.3889 -2.1029 -8.6275 -1957
19.3991 -2.1129 -8.6378 -1953
19.3814 -2.1109 -8.6193 -1956
19.3866 -2.1202 -8.6255 -1960
19.3841 -2.1287 -8.6223 -1955
19.3836 -2.1374 -8.6238 -1961
19.3801 -2.1459 -8.6223 -1962
19.3824 -2.0932 -8.6123 -1954
19.3859 -2.0937 -8.6033 -1957
19.3854 -2.0937 -8.5925 -2003
19.3874 -2.1027 -8.5955 -1987
19.3829 -2.1022 -8.6040 -1966
19.3804 -2.1019 -8.6133 -1957
19.3811 -2.1109 -8.6085 -1959
19.3809 -2.1109 -8.5978 -1959
19.3911 -2.1119 -8.5918 -1992
19.3986 -2.1214 -8.5888 -2006
19.3861 -2.1199 -8.5938 -1971
19.3839 -2.1197 -8.6033 -1959
19.3819 -2.1197 -8.6128 -1965
19.3814 -2.1284 -8.6105 -1958
19.3791 -2.1282 -8.5990 -1961
19.3874 -2.1292 -8.5923 -1998
19.3916 -2.1382 -8.5855 -2030
19.3889 -2.1379 -8.5948 -1997
19.3786 -2.1369 -8.6005 -1967
19.3831 -2.1372 -8.6130 -1960
19.3804 -2.1459 -8.6120 -1959
19.3789 -2.1459 -8.6008 -1958
19.3866 -2.1467 -8.5938 -1980
19.3924 -2.0237 -8.6238 -1960
19.3949 -2.0327 -8.6253 -1961
19.3871 -2.0407 -8.6178 -1961
19.3869 -2.0494 -8.6203 -1964
19.3889 -2.0587 -8.6233 -1960
19.3939 -2.0682 -8.6275 -1958
19.3866 -2.0762 -8.6220 -1956
19.3834 -2.0844 -8.6200 -1954
19.3924 -2.0237 -8.6028 -1961
19.3971 -2.0242 -8.5943 -1975
19.3954 -2.0327 -8.5940 -1971
19.3864 -2.0317 -8.6005 -1961
19.3864 -2.0317 -8.6110 -1961
19.3854 -2.0404 -8.6063 -1960
19.3901 -2.0409 -8.5978 -1960
19.3914 -2.0499 -8.5908 -1995
19.3881 -2.0497 -8.5998 -1962
19.3869 -2.0494 -8.6095 -1959
19.3854 -2.0582 -8.6110 -1963
19.3859 -2.0582 -8.6008 -1965
19.3924 -2.0589 -8.5933 -1973
19.3999 -2.0689 -8.5880 -2021
19.3926 -2.0682 -8.5953 -1971
19.3851 -2.0672 -8.6025 -1958
19.3856 -2.0674 -8.6133 -1958
19.3819 -2.0757 -8.6095 -1957
19.3864 -2.0762 -8.6010 -1962
19.3896 -2.0764 -8.5920 -2001
19.3924 -2.0854 -8.5925 -2016
19.3866 -2.0849 -8.6003 -1963
19.3839 -2.0847 -8.6095 -1952
19.3946 -1.9622 -8.6198 -1958
19.3919 -1.9709 -8.6193 -1953
19.3934 -1.9799 -8.6210 -1959
19.3906 -1.9884 -8.6185 -1953
19.3911 -1.9974 -8.6185 -1957
19.3919 -2.0062 -8.6215 -1961
19.3911 -2.0149 -8.6213 -1956
19.3961 -1.9622 -8.5995 -1961
19.3931 -1.9619 -8.6085 -1958
19.3914 -1.9709 -8.6083 -1955
19.3934 -1.9712 -8.5988 -1956
19.3991 -1.9717 -8.5908 -1980
19.3969 -1.9802 -8.5913 -2001
19.3924 -1.9797 -8.5998 -1965
19.3936 -1.9799 -8.6108 -1961
19.3929 -1.9887 -8.6093 -1958
19.3914 -1.9884 -8.5980 -1961
19.3976 -1.9889 -8.5903 -2021
19.3964 -1.9979 -8.5893 -2025
19.3911 -1.9974 -8.5975 -1969
19.3881 -1.9972 -8.6065 -1959
19.3884 -2.0057 -8.6095 -1959
19.3906 -2.0059 -8.6000 -1961
19.3946 -2.0064 -8.5913 -2012
19.3981 -2.0157 -8.5928 -1992
19.3891 -2.0147 -8.5993 -1958
19.3891 -2.0147 -8.6098 -1961
19.3871 -2.0229 -8.6108 -1959
19.3999 -1.9099 -8.6210 -1962
19.3984 -1.9189 -8.6215 -1958
19.3984 -1.9274 -8.6220 -1962
19.3969 -1.9362 -8.6190 -1964
19.3931 -1.9447 -8.6165 -1960
19.3951 -1.9537 -8.6213 -1960
19.3959 -1.9009 -8.6093 -1960
19.3996 -1.9014 -8.6005 -1962
19.3969 -1.9097 -8.5985 -1965
19.3961 -1.9097 -8.6088 -1959
19.3961 -1.9187 -8.6100 -1965
19.3981 -1.9187 -8.6003 -1970
19.3976 -1.9272 -8.6008 -1968
19.3966 -1.9272 -8.6108 -1963
19.3939 -1.9359 -8.6073 -1971
19.3969 -1.9362 -8.5980 -1944
19.3961 -1.9449 -8.5968 -1963
19.3944 -1.9449 -8.6065 -1965
19.3919 -1.9534 -8.6093 -1960
19.3944 -1.9537 -8.6000 -1958
19.3986 -1.9539 -8.5913 -1977
18.9324 -1.8384 -8.7640 -1990
18.9181 -1.8457 -8.7558 -1965
18.9056 -1.8532 -8.7525 -1999
18.9529 -1.8577 -8.7638 -1929
18.9489 -1.8657 -8.7618 -1947
18.8981 -1.8607 -8.7490 -1992
18.9036 -1.8699 -8.7520 -1965
18.9484 -1.8744 -8.7625 -1933
18.9481 -1.8827 -8.7630 -1936
18.9134 -1.8794 -8.7575 -1960
18.9259 -1.8894 -8.7610 -1932
18.9516 -1.8919 -8.7625 -1910
18.8974 -1.8952 -8.7470 -1916
19.0134 -1.8462 -8.7908 -1938
19.0074 -1.8542 -8.7760 -1920
18.9834 -1.8519 -8.7753 -1925
18.9766 -1.8599 -8.7645 -1909
18.9986 -1.8622 -8.7643 -1907
18.9951 -1.8702 -8.7623 -1930
18.9724 -1.8679 -8.7623 -1910
18.9719 -1.8767 -8.7628 -1870
18.9924 -1.8787 -8.7620 -1901
19.0154 -1.8812 -8.7620 -1894
19.0169 -1.8897 -8.7630 -1910
18.9906 -1.8869 -8.7615 -1883
18.9684 -1.8847 -8.7618 -1890
18.9754 -1.8942 -8.7630 -1918
18.9529 -1.7714 -8.7715 -1938
18.9146 -1.7767 -8.7538 -1934
18.9234 -1.7859 -8.7573 -1929
18.9386 -1.7962 -8.7720 -1959
18.9539 -1.8147 -8.7715 -1946
18.9531 -1.8317 -8.7728 -1985
18.8929 -1.8257 -8.7553 -1981
19.0109 -1.8289 -8.7973 -1990
19.0834 -1.8359 -8.8203 -1936
19.0926 -1.8367 -8.8140 -1944
19.0591 -1.7989 -8.8098 -1964
19.0819 -1.8097 -8.8170 -2006
19.0756 -1.8092 -8.8248 -1946
19.0504 -1.8152 -8.8163 -1903
19.1209 -1.7699 -8.8170 -1965
19.1319 -1.7709 -8.8115 -1959
19.1336 -1.7799 -8.8100 -1904
19.1256 -1.7792 -8.8170 -1955
19.1354 -1.7802 -8.8320 -1901
19.0911 -1.7759 -8.8220 -1943
19.1061 -1.7859 -8.8215 -1952
19.1274 -1.7879 -8.8208 -1900
19.1294 -1.7879 -8.8113 -1949
19.1261 -1.7964 -8.8200 -1935
19.0949 -1.7934 -8.8160 -1974
19.1031 -1.8029 -8.8195 -1976
19.1176 -1.8044 -8.8158 -1986
19.1299 -1.8054 -8.8108 -1969
19.1349 -1.8149 -8.8098 -1929
19.1184 -1.8132 -8.8128 -1970
19.1069 -1.8122 -8.8180 -1992
19.0946 -1.8194 -8.8263 -1937
19.0891 -1.8189 -8.8133 -2016
19.1019 -1.8202 -8.8088 -2020
19.0841 -1.8269 -8.8105 -2005
19.0906 -1.8277 -8.8243 -1890
19.0709 -1.8429 -8.8060 -1935
19.0476 -1.8407 -8.8060 -1949
19.0344 -1.8482 -8.7903 -1933
19.0529 -1.8502 -8.7883 -1948
19.0754 -1.8522 -8.7880 -1954
19.0704 -1.8604 -8.7733 -1928
19.0494 -1.8584 -8.7743 -1935
19.0289 -1.8564 -8.7753 -1939
19.0206 -1.8644 -8.7640 -1898
19.0439 -1.8667 -8.7643 -1852
19.0644 -1.8687 -8.7633 -1903
19.0656 -1.8772 -8.7630 -1913
19.0414 -1.8747 -8.7623 -1875
19.0199 -1.8727 -8.7630 -1903
19.0384 -1.8834 -8.7623 -1886
19.0619 -1.8857 -8.7628 -1925
19.0601 -1.8939 -8.7618 -1913
19.0381 -1.8917 -8.7623 -1900
19.0911 -1.8367 -8.8028 -2013
19.1081 -1.8382 -8.8000 -2011
19.1189 -1.8392 -8.7945 -1996
19.1131 -1.8469 -8.7938 -1987
19.0961 -1.8454 -8.7965 -2000
19.0836 -1.8442 -8.8013 -1967
19.0984 -1.8544 -8.7883 -1921
19.1169 -1.8562 -8.7863 -1934
19.1419 -1.8587 -8.7873 -1928
19.1386 -1.8669 -8.7730 -1928
19.1149 -1.8647 -8.7725 -1932
19.0929 -1.8627 -8.7730 -1915
19.0859 -1.8707 -8.7625 -1869
19.1071 -1.8729 -8.7620 -1926
19.1316 -1.8752 -8.7628 -1901
19.1324 -1.8837 -8.7620 -1917
19.1091 -1.8814 -8.7618 -1939
19.0869 -1.8792 -8.7623 -1932
19.0859 -1.8879 -8.7633 -1891
19.1044 -1.8899 -8.7613 -1893
19.1284 -1.8922 -8.7618 -1930
19.0481 -1.7804 -8.8053 -1952
19.0204 -1.7864 -8.7923 -1982
19.1189 -1.8217 -8.8060 -2006
19.1336 -1.8317 -8.8018 -1990
19.1186 -1.8304 -8.8053 -2011
19.0949 -1.8282 -8.8050 -2016
18.9176 -1.7079 -8.7503 -1982
18.9046 -1.7069 -8.7548 -1963
18.8964 -1.7062 -8.7615 -1945
18.8969 -1.7149 -8.7705 -1955
18.9036 -1.7157 -8.7633 -1926
18.9044 -1.7157 -8.7530 -1956
18.9089 -1.7159 -8.7448 -1973
18.9344 -1.7184 -8.7463 -1967
18.9196 -1.7254 -8.7500 -1973
18.9044 -1.7242 -8.7533 -1962
18.9059 -1.7332 -8.7485 -1938
18.9414 -1.7364 -8.7545 -1968
18.9196 -1.7427 -8.7513 -1949
18.8949 -1.7577 -8.7418 -1920
18.9984 -1.7154 -8.7773 -1991
18.9624 -1.7294 -8.7590 -1966
19.0021 -1.7589 -8.7833 -1964
18.8991 -1.6894 -8.7595 -1957
18.9156 -1.6997 -8.7620 -1978
18.9586 -1.6949 -8.7765 -1966
18.9579 -1.7037 -8.7710 -1976
19.0646 -1.7559 -8.8078 -1944
19.1406 -1.7112 -8.8290 -1955
19.0964 -1.7072 -8.8193 -1957
19.0934 -1.7157 -8.8128 -1943
19.1406 -1.7199 -8.8240 -1926
19.1429 -1.7284 -8.8230 -1913
19.1061 -1.7249 -8.8165 -1968
19.0961 -1.7329 -8.8103 -1954
19.1094 -1.7427 -8.8165 -1936
19.1209 -1.7529 -8.8165 -1915
19.1336 -1.7539 -8.8120 -1859
19.1414 -1.7632 -8.8113 -1915
19.1271 -1.7617 -8.8153 -1895
19.1091 -1.7602 -8.8175 -1958
19.1079 -1.7689 -8.8215 -1934
19.0474 -1.7027 -8.8073 -1946
19.0569 -1.7124 -8.8063 -1938
19.0681 -1.7479 -8.8028 -1915
19.2046 -1.8384 -8.8130 -1956
19.1851 -1.8367 -8.8148 -1947
19.1764 -1.8447 -8.8105 -1957
19.2379 -1.8332 -8.8188 -1932
19.2414 -1.8334 -8.8098 -1942
19.2689 -1.8359 -8.8120 -1970
19.2694 -1.8447 -8.8218 -1953
19.2206 -1.8402 -8.8100 -1944
19.2101 -1.8479 -8.8155 -1948
19.2261 -1.8494 -8.8123 -1965
19.2531 -1.8522 -8.8140 -1971
19.1566 -1.7734 -8.8125 -1947
19.1904 -1.7764 -8.8175 -1922
19.2004 -1.7774 -8.8118 -1881
19.2024 -1.7862 -8.8098 -1921
19.1919 -1.7852 -8.8155 -1876
19.1614 -1.7824 -8.8123 -1903
19.1574 -1.7907 -8.8135 -1896
19.1874 -1.7934 -8.8168 -1883
19.2006 -1.7947 -8.8125 -1881
19.2006 -1.8034 -8.8118 -1924
19.1584 -1.7994 -8.8135 -1877
19.1474 -1.7984 -8.8193 -1930
19.1486 -1.8072 -8.8090 -1924
19.1729 -1.8094 -8.8098 -1938
19.2014 -1.8122 -8.8123 -1932
19.1979 -1.8207 -8.8178 -1964
19.1556 -1.8167 -8.8088 -1945
19.1541 -1.8252 -8.8118 -1958
19.1954 -1.8289 -8.8203 -1960
19.2634 -1.7742 -8.8143 -1948
19.2501 -1.7732 -8.8188 -1925
19.2114 -1.7694 -8.8115 -1918
19.2479 -1.7817 -8.8123 -1907
19.2641 -1.7832 -8.8093 -1852
19.2499 -1.7907 -8.8105 -1925
19.2389 -1.7982 -8.8088 -1963
19.2566 -1.8087 -8.8165 -1923
19.2234 -1.8057 -8.8118 -1953
19.2204 -1.8139 -8.8105 -1973
19.2399 -1.8159 -8.8088 -1964
19.2461 -1.8254 -8.8080 -1931
19.2296 -1.8237 -8.8110 -1972
19.2161 -1.8224 -8.8153 -1962
19.2251 -1.8319 -8.8235 -1924
19.2009 -1.8554 -8.8023 -1954
19.1804 -1.8534 -8.8035 -1955
19.1546 -1.8509 -8.8023 -1953
19.1629 -1.8607 -8.7863 -1933
19.1854 -1.8629 -8.7863 -1950
19.2054 -1.8649 -8.7848 -1940
19.2029 -1.8732 -8.7708 -1956
19.1826 -1.8714 -8.7720 -1942
19.1596 -1.8692 -8.7723 -1907
19.1531 -1.8774 -8.7620 -1935
19.1779 -1.8797 -8.7630 -1922
19.2009 -1.8819 -8.7630 -1933
19.1994 -1.8902 -8.7610 -1966
19.1756 -1.8879 -8.7608 -1954
19.1569 -1.8862 -8.7628 -1923
19.1526 -1.8947 -8.7625 -1936
19.2646 -1.8617 -8.7998 -1966
19.2394 -1.8592 -8.7985 -1964
19.2201 -1.8574 -8.8003 -1955
19.2246 -1.8667 -8.7830 -1952
19.2479 -1.8689 -8.7833 -1968
19.2509 -1.8779 -8.7718 -1950
19.2291 -1.8759 -8.7723 -1961
19.2149 -1.8834 -8.7588 -1934
19.2359 -1.8854 -8.7578 -1947
19.2581 -1.8877 -8.7573 -1942
19.2396 -1.8942 -8.7480 -1956
19.2226 -1.8927 -8.7508 -1929
19.2101 -1.8914 -8.7555 -1949
19.2091 -1.7782 -8.8050 -1884
19.1646 -1.8002 -8.8060 -1894
19.2159 -1.7874 -8.8055 -1948
19.2106 -1.7957 -8.8065 -1929
19.2894 -1.8379 -8.8108 -1972
19.3346 -1.8509 -8.8090 -1973
19.2919 -1.8469 -8.8108 -1972
19.3096 -1.8487 -8.8295 -1928
19.2746 -1.8542 -8.8133 -1964
19.2929 -1.8559 -8.8113 -1949
19.3106 -1.8577 -8.8088 -1971
19.3409 -1.8607 -8.8118 -1951
19.3656 -1.8629 -8.8125 -1931
19.3849 -1.8647 -8.8105 -1923
19.3061 -1.7697 -8.8173 -1908
19.3279 -1.7717 -8.8168 -1916
19.2899 -1.7767 -8.8158 -1920
19.3124 -1.7877 -8.8205 -1892
19.3336 -1.7984 -8.8170 -1929
19.3186 -1.7972 -8.8208 -1915
19.2819 -1.7937 -8.8145 -1930
19.2874 -1.8027 -8.8205 -1966
19.3236 -1.8062 -8.8265 -1918
19.3266 -1.8064 -8.8173 -1894
19.3319 -1.8069 -8.8093 -1892
19.3241 -1.8149 -8.8155 -1848
19.3299 -1.8157 -8.8288 -1856
19.2929 -1.8122 -8.8225 -1890
19.2899 -1.8207 -8.8213 -1884
19.3066 -1.8222 -8.8183 -1898
19.2899 -1.8294 -8.8070 -1972
19.2781 -1.8284 -8.8120 -1979
19.3401 -1.7729 -8.8115 -1914
19.3556 -1.7744 -8.8080 -1883
19.3426 -1.7817 -8.8083 -1889
19.3379 -1.7812 -8.8168 -1940
19.3471 -1.7819 -8.8315 -1941
19.3381 -1.7902 -8.8218 -1916
19.3419 -1.7904 -8.8130 -1948
19.3401 -1.7989 -8.8093 -1906
19.3344 -1.8337 -8.7748 -1954
19.3264 -1.8329 -8.7815 -1930
19.3029 -1.8392 -8.8063 -1973
19.3141 -1.8404 -8.8008 -1958
19.3259 -1.8414 -8.7958 -1924
19.3261 -1.8414 -8.7853 -1852
19.3276 -1.8417 -8.7753 -1941
19.3341 -1.8509 -8.7775 -1899
19.3309 -1.8507 -8.7863 -1875
19.2981 -1.8474 -8.8030 -1990
19.3301 -1.8679 -8.7980 -1951
19.3089 -1.8659 -8.7988 -1952
19.2879 -1.8639 -8.7998 -1954
19.2766 -1.8717 -8.7858 -1953
19.2964 -1.8737 -8.7843 -1956
19.3174 -1.8757 -8.7833 -1963
19.3171 -1.8844 -8.7705 -1946
19.3024 -1.8829 -8.7743 -1939
19.2751 -1.8804 -8.7723 -1959
19.2996 -1.8917 -8.7658 -1936
19.3176 -1.8934 -8.7633 -1956
19.3871 -1.8387 -8.7465 -2016
19.3659 -1.8367 -8.7473 -1989
19.3764 -1.8377 -8.7625 -1960
19.3946 -1.8394 -8.7813 -1934
19.3496 -1.8352 -8.7713 -1923
19.3401 -1.8342 -8.7983 -1904
19.3419 -1.8429 -8.7713 -1938
19.3736 -1.8459 -8.7750 -1916
19.3934 -1.8479 -8.7733 -1949
19.3646 -1.8452 -8.7498 -1975
19.3771 -1.8462 -8.7448 -2018
19.3846 -1.8557 -8.7478 -1988
19.3634 -1.8537 -8.7485 -1967
19.3864 -1.8559 -8.7695 -1946
19.3919 -1.8564 -8.7825 -1944
19.3461 -1.8522 -8.7723 -1938
19.3449 -1.8519 -8.8033 -1924
19.3859 -1.8649 -8.7900 -1918
19.3841 -1.8647 -8.7680 -1949
19.3629 -1.8627 -8.7480 -1967
19.3789 -1.8642 -8.7445 -1985
19.3774 -1.8724 -8.7460 -1988
19.3604 -1.8709 -8.7488 -1965
19.3924 -1.8739 -8.7738 -1943
19.3916 -1.8739 -8.7943 -1923
19.3744 -1.8722 -8.7970 -1933
19.3539 -1.8702 -8.7980 -1948
19.3394 -1.8779 -8.7825 -1961
19.3599 -1.8799 -8.7815 -1949
19.3809 -1.8819 -8.7803 -1927
19.3889 -1.8827 -8.7733 -1931
19.3594 -1.8797 -8.7495 -1963
19.3721 -1.8809 -8.7448 -1991
19.3631 -1.8889 -8.7495 -1974
19.3636 -1.8889 -8.7603 -1941
19.3619 -1.8887 -8.7700 -1935
19.3401 -1.8867 -8.7705 -1946
19.3426 -1.8959 -8.7640 -1973
19.3954 -1.8479 -8.7423 -1996
19.3954 -1.8567 -8.7423 -1977
19.3934 -1.8657 -8.7405 -1977
19.3911 -1.8739 -8.7418 -1975
19.3896 -1.8827 -8.7420 -1989
19.3946 -1.8919 -8.7430 -1986
19.3716 -1.8897 -8.7430 -1986
19.3274 -1.8154 -8.8063 -1890
19.2901 -1.8207 -8.8003 -1903
19.3046 -1.8219 -8.7960 -1879
19.3359 -1.8249 -8.7893 -1908
19.3321 -1.8244 -8.7768 -1910
19.3151 -1.8319 -8.7973 -1911
19.2941 -1.8299 -8.7983 -1942
19.3756 -1.7762 -8.8065 -1887
19.3816 -1.7767 -8.7988 -1924
19.3686 -1.7754 -8.7505 -1967
19.3766 -1.7762 -8.7435 -1992
19.3894 -1.7859 -8.7455 -1995
19.3704 -1.7842 -8.7475 -1978
19.3984 -1.7867 -8.7705 -1954
19.3986 -1.7867 -8.7918 -1925
19.3711 -1.7842 -8.7898 -1892
19.3654 -1.7837 -8.7975 -1888
19.3549 -1.7827 -8.8033 -1843
19.3481 -1.7909 -8.8053 -1900
19.3589 -1.7919 -8.7995 -1871
19.3696 -1.7929 -8.7938 -1898
19.3779 -1.7937 -8.7868 -1922
19.3666 -1.7927 -8.7500 -1968
19.3831 -1.8029 -8.7450 -1994
19.3691 -1.8017 -8.7493 -1975
19.3899 -1.8037 -8.7900 -1925
19.3826 -1.8029 -8.7973 -1924
19.3694 -1.8017 -8.8018 -1909
19.3519 -1.8002 -8.8043 -1887
19.3429 -1.8079 -8.8035 -1908
19.3571 -1.8092 -8.7995 -1891
19.3671 -1.8102 -8.7510 -1968
19.3761 -1.8109 -8.7448 -1999
19.3971 -1.8219 -8.7435 -1981
19.3816 -1.8204 -8.7470 -2005
19.3611 -1.8184 -8.7483 -1968
19.3959 -1.8217 -8.7745 -1943
19.3569 -1.8182 -8.7673 -1904
19.3376 -1.8162 -8.7690 -1922
19.3391 -1.8164 -8.7803 -1917
19.3531 -1.8177 -8.7970 -1892
19.3389 -1.8164 -8.8013 -1923
19.3429 -1.8254 -8.8030 -1898
19.3399 -1.8252 -8.7698 -1914
19.3726 -1.8284 -8.7740 -1928
19.3644 -1.8277 -8.7493 -1974
19.3774 -1.8287 -8.7445 -2006
19.3954 -1.7779 -8.7415 -1984
19.3734 -1.7934 -8.7425 -1990
19.3964 -1.7954 -8.7423 -1981
19.3959 -1.8129 -8.7430 -1989
19.3979 -1.8307 -8.7433 -1983
19.2054 -1.7169 -8.8273 -1884
19.1896 -1.7154 -8.8305 -1850
19.1861 -1.7152 -8.8395 -1907
19.1819 -1.7237 -8.8325 -1848
19.1861 -1.7239 -8.8240 -1842
19.1931 -1.7247 -8.8165 -1853
19.1931 -1.7329 -8.8143 -1957
19.1864 -1.7322 -8.8218 -1888
19.1804 -1.7317 -8.8295 -1857
19.1769 -1.7404 -8.8370 -1905
19.1901 -1.7414 -8.8328 -1858
19.1881 -1.7414 -8.8213 -1869
19.1949 -1.7419 -8.8138 -1953
19.1964 -1.7507 -8.8143 -1869
19.1881 -1.7499 -8.8210 -1867
19.1534 -1.7467 -8.8158 -1885
19.1576 -1.7472 -8.8283 -1898
19.1524 -1.7557 -8.8100 -1877
19.1916 -1.7594 -8.8175 -1862
19.2089 -1.7609 -8.8150 -1912
19.2036 -1.7687 -8.8188 -1890
19.1896 -1.7674 -8.8228 -1908
19.2564 -1.7214 -8.8400 -1918
19.2216 -1.7272 -8.8193 -1945
19.2684 -1.7314 -8.8300 -1984
19.2574 -1.7387 -8.8225 -1988
19.2266 -1.7359 -8.8190 -1948
19.2249 -1.7447 -8.8170 -1939
19.2501 -1.7469 -8.8183 -1951
19.2719 -1.7489 -8.8070 -1892
19.2491 -1.7554 -8.8173 -1931
19.2291 -1.7537 -8.8188 -1945
19.2674 -1.7662 -8.8313 -1924
19.3199 -1.7272 -8.8163 -1945
19.3004 -1.7254 -8.8180 -1940
19.2846 -1.7239 -8.8213 -1938
19.2799 -1.7234 -8.8295 -1933
19.2754 -1.7232 -8.8383 -1904
19.2906 -1.7334 -8.8298 -1887
19.2881 -1.7332 -8.8180 -1900
19.2979 -1.7342 -8.8120 -1922
19.3324 -1.7372 -8.8173 -1886
19.3219 -1.7444 -8.8098 -1925
19.2799 -1.7407 -8.8118 -1934
19.2781 -1.7407 -8.8215 -1950
19.2736 -1.7492 -8.8183 -1892
19.3336 -1.7632 -8.8135 -1947
19.3041 -1.7604 -8.8108 -1898
19.2931 -1.7594 -8.8163 -1906
19.2811 -1.7584 -8.8213 -1946
19.2804 -1.7674 -8.8265 -1923
19.2889 -1.7682 -8.8200 -1961
19.3819 -1.7327 -8.8130 -1874
19.3604 -1.7307 -8.8135 -1873
19.3574 -1.7304 -8.8228 -1908
19.3726 -1.7407 -8.8250 -1902
19.3646 -1.7399 -8.8105 -1932
19.3479 -1.7469 -8.8110 -1979
19.2896 -1.7417 -8.8055 -1916
19.2789 -1.7494 -8.7998 -1912
19.2904 -1.7507 -8.7943 -1922
19.3344 -1.7547 -8.8038 -1978
19.3944 -1.7337 -8.7450 -1989
19.3746 -1.7319 -8.7468 -1978
19.3866 -1.7329 -8.7625 -1946
19.3844 -1.7329 -8.7930 -1879
19.3804 -1.7324 -8.8018 -1881
19.3614 -1.7397 -8.7985 -1907
19.3736 -1.7409 -8.7935 -1938
19.3869 -1.7419 -8.7890 -1892
19.3694 -1.7404 -8.7493 -1963
19.3826 -1.7417 -8.7448 -1986
19.3884 -1.7504 -8.7455 -1993
19.3721 -1.7489 -8.7488 -1975
19.3919 -1.7507 -8.7890 -1895
19.3769 -1.7494 -8.7928 -1955
19.3556 -1.7474 -8.7935 -1978
19.3504 -1.7472 -8.8018 -1974
19.3439 -1.7554 -8.7975 -1969
19.3569 -1.7567 -8.7928 -1977
19.3659 -1.7574 -8.7863 -1981
19.3841 -1.7592 -8.7840 -1938
19.3736 -1.7582 -8.7475 -1983
19.3906 -1.7597 -8.7448 -1986
19.3926 -1.7684 -8.7460 -1986
19.3719 -1.7667 -8.7470 -1988
19.3841 -1.7677 -8.7630 -1958
19.3986 -1.7689 -8.7905 -1943
19.3646 -1.7659 -8.7855 -1960
19.3566 -1.7652 -8.7925 -1981
19.3496 -1.7647 -8.7998 -1987
19.3374 -1.7634 -8.8048 -1979
19.3991 -1.8924 -8.6183 -1957
19.3996 -1.8572 -8.6073 -1961
19.3946 -1.8657 -8.6153 -1964
19.3996 -1.8662 -8.6068 -1961
19.3986 -1.8659 -8.5960 -1966
19.3989 -1.8744 -8.6085 -1960
19.3999 -1.8837 -8.6098 -1960
19.3991 -1.8837 -8.5988 -1965
19.3961 -1.8919 -8.6065 -1960
19.4076 -2.1224 -8.7933 -1944
19.4091 -2.0874 -8.6843 -1944
19.4111 -2.0874 -8.6958 -1946
19.4074 -2.0872 -8.7048 -1946
19.4096 -2.0874 -8.7163 -1938
19.4056 -2.0869 -8.7250 -1939
19.4071 -2.0959 -8.7288 -1944
19.4069 -2.0959 -8.7183 -1941
19.4074 -2.0959 -8.7078 -1943
19.4069 -2.0959 -8.6970 -1944
19.4059 -2.0959 -8.6863 -1941
19.4071 -2.1049 -8.6880 -1941
19.4086 -2.1052 -8.6993 -1953
19.4076 -2.1049 -8.7093 -1951
19.4041 -2.1047 -8.7183 -1946
19.4034 -2.1044 -8.7283 -1946
19.4024 -2.1132 -8.7348 -1960
19.4046 -2.1134 -8.7253 -1944
19.4066 -2.1137 -8.7155 -1937
19.4081 -2.1139 -8.7058 -1949
19.4069 -2.1137 -8.6945 -1948
19.4096 -2.1139 -8.6850 -1941
19.4076 -2.1224 -8.6878 -1945
19.4054 -2.1222 -8.6973 -1944
19.4101 -2.1227 -8.7103 -1943
19.4029 -2.1219 -8.7175 -1940
19.4009 -2.1217 -8.7273 -1944
19.4021 -2.1307 -8.7250 -1940
19.4034 -2.1309 -8.7153 -1937
19.4066 -2.1312 -8.7060 -1943
19.4074 -2.1314 -8.6958 -1942
19.4066 -2.1312 -8.6850 -1947
19.4074 -2.1399 -8.6873 -1943
19.4059 -2.1399 -8.6973 -1942
19.4046 -2.1397 -8.7073 -1942
19.4024 -2.1394 -8.7170 -1943
19.4044 -2.1397 -8.7285 -1942
19.4011 -2.1484 -8.7268 -1939
19.4049 -2.1487 -8.7178 -1928
19.4034 -2.1487 -8.7068 -1948
19.4059 -2.1489 -8.6973 -1944
19.4044 -2.1487 -8.6860 -1943
19.4041 -2.0249 -8.7343 -1965
19.4109 -2.0257 -8.7268 -1937
19.4121 -2.0257 -8.7168 -1935
19.4154 -2.0259 -8.7078 -1942
19.4131 -2.0257 -8.6960 -1936
19.4144 -2.0259 -8.6860 -1939
19.4134 -2.0347 -8.6868 -1941
19.4136 -2.0347 -8.6973 -1942
19.4129 -2.0347 -8.7078 -1945
19.4119 -2.0344 -8.7178 -1928
19.4081 -2.0342 -8.7268 -1939
19.4014 -2.0334 -8.7343 -1964
19.4049 -2.0427 -8.7313 -1965
19.4086 -2.0429 -8.7225 -1940
19.4119 -2.0434 -8.7133 -1934
19.4129 -2.0434 -8.7033 -1944
19.4121 -2.0434 -8.6923 -1934
19.4134 -2.0434 -8.6823 -1935
19.4111 -2.0522 -8.6840 -1939
19.4109 -2.0519 -8.6945 -1939
19.4104 -2.0519 -8.7048 -1948
19.4126 -2.0522 -8.7163 -1943
19.4079 -2.0517 -8.7248 -1944
19.4021 -2.0512 -8.7330 -1960
19.4029 -2.0602 -8.7350 -1960
19.4081 -2.0607 -8.7268 -1938
19.4091 -2.0607 -8.7168 -1939
19.4109 -2.0609 -8.7070 -1941
19.4109 -2.0609 -8.6963 -1942
19.4111 -2.0609 -8.6860 -1947
19.4091 -2.0699 -8.6873 -1947
19.4126 -2.0702 -8.6995 -1943
19.4091 -2.0699 -8.7085 -1946
19.4101 -2.0699 -8.7198 -1934
19.4071 -2.0697 -8.7288 -1946
19.4001 -2.0689 -8.7363 -1966
19.4016 -2.0777 -8.7345 -1964
19.4061 -2.0782 -8.7260 -1939
19.4084 -2.0784 -8.7165 -1936
19.4094 -2.0787 -8.7063 -1944
19.4099 -2.0787 -8.6958 -1948
19.4091 -2.0784 -8.6850 -1947
19.4016 -2.0864 -8.7340 -1957
19.4191 -1.9647 -8.6835 -1941
19.4191 -1.9647 -8.6940 -1939
19.4191 -1.9647 -8.7048 -1953
19.4166 -1.9644 -8.7143 -1936
19.4159 -1.9644 -8.7245 -1931
19.4121 -1.9639 -8.7335 -1961
19.4011 -1.9719 -8.7288 -1961
19.4156 -1.9734 -8.7248 -1939
19.4166 -1.9734 -8.7145 -1933
19.4171 -1.9734 -8.7043 -1938
19.4189 -1.9737 -8.6945 -1938
19.4166 -1.9734 -8.6830 -1939
19.4149 -1.9822 -8.6838 -1937
19.4154 -1.9822 -8.6945 -1939
19.4184 -1.9824 -8.7063 -1938
19.4164 -1.9822 -8.7160 -1921
19.4144 -1.9822 -8.7258 -1933
19.4054 -1.9899 -8.7305 -1954
19.4119 -1.9904 -8.7228 -1935
19.4151 -1.9909 -8.7138 -1931
19.4194 -1.9912 -8.7050 -1941
19.4171 -1.9912 -8.6935 -1936
19.4166 -1.9909 -8.6828 -1938
19.4159 -1.9999 -8.6823 -1941
19.4159 -1.9999 -8.6928 -1940
19.4151 -1.9999 -8.7030 -1941
19.4146 -1.9999 -8.7135 -1934
19.4111 -1.9994 -8.7225 -1945
19.4094 -1.9994 -8.7323 -1957
19.4059 -2.0077 -8.7330 -1960
19.4119 -2.0082 -8.7250 -1933
19.4139 -2.0084 -8.7155 -1932
19.4134 -2.0084 -8.7048 -1944
19.4166 -2.0087 -8.6958 -1937
19.4161 -2.0087 -8.6850 -1939
19.4129 -2.0172 -8.6840 -1944
19.4141 -2.0174 -8.6953 -1945
19.4156 -2.0174 -8.7065 -1946
19.4131 -2.0172 -8.7160 -1938
19.4106 -2.0169 -8.7253 -1941
19.4071 -2.0167 -8.7343 -1961
19.4014 -1.9017 -8.7378 -1976
19.4141 -1.9029 -8.7333 -1965
19.4184 -1.9032 -8.7245 -1938
19.4216 -1.9034 -8.7153 -1937
19.4221 -1.9037 -8.7050 -1946
19.4214 -1.9034 -8.6943 -1937
19.4224 -1.9037 -8.6843 -1940
19.4221 -1.9122 -8.6835 -1938
19.4229 -1.9122 -8.6945 -1940
19.4209 -1.9119 -8.7040 -1939
19.4191 -1.9119 -8.7140 -1937
19.4194 -1.9119 -8.7245 -1944
19.4149 -1.9114 -8.7330 -1958
19.4019 -1.9102 -8.7378 -1976
19.4124 -1.9202 -8.7330 -1967
19.4186 -1.9209 -8.7253 -1946
19.4196 -1.9209 -8.7153 -1944
19.4199 -1.9209 -8.7048 -1943
19.4226 -1.9212 -8.6955 -1943
19.4214 -1.9212 -8.6843 -1941
19.4201 -1.9294 -8.6845 -1950
19.4226 -1.9297 -8.6963 -1944
19.4216 -1.9297 -8.7065 -1949
19.4186 -1.9294 -8.7155 -1943
19.4186 -1.9294 -8.7263 -1939
19.4109 -1.9287 -8.7333 -1964
19.4134 -1.9379 -8.7315 -1967
19.4176 -1.9384 -8.7228 -1938
19.4191 -1.9384 -8.7130 -1932
19.4181 -1.9384 -8.7020 -1942
19.4201 -1.9384 -8.6923 -1945
19.4209 -1.9387 -8.6823 -1932
19.4216 -1.9477 -8.6820 -1942
19.4206 -1.9474 -8.6923 -1942
19.4196 -1.9474 -8.7023 -1938
19.4181 -1.9472 -8.7123 -1938
19.4144 -1.9469 -8.7213 -1948
19.4156 -1.9469 -8.7323 -1958
19.4014 -1.9457 -8.7365 -1973
19.4141 -1.9557 -8.7348 -1963
19.4161 -1.9559 -8.7250 -1929
19.4179 -1.9559 -8.7153 -1941
19.4186 -1.9562 -8.7053 -1941
19.4176 -1.9559 -8.6943 -1943
19.4186 -1.9562 -8.6840 -1944
19.4049 -2.0869 -8.6400 -1954
19.4109 -2.0874 -8.6533 -1947
19.4089 -2.0874 -8.6630 -1946
19.4074 -2.0872 -8.6728 -1941
19.4091 -2.0962 -8.6770 -1942
19.4084 -2.0962 -8.6660 -1939
19.4084 -2.0962 -8.6555 -1943
19.4101 -2.0962 -8.6458 -1949
19.4069 -2.1049 -8.6460 -1947
19.4066 -2.1049 -8.6563 -1945
19.4066 -2.1049 -8.6668 -1938
19.4101 -2.1052 -8.6788 -1945
19.4059 -2.1137 -8.6728 -1942
19.4081 -2.1139 -8.6630 -1943
19.4071 -2.1137 -8.6520 -1949
19.4054 -2.1222 -8.6443 -1947
19.4074 -2.1224 -8.6558 -1945
19.4091 -2.1227 -8.6673 -1947
19.4064 -2.1222 -8.6765 -1945
19.4064 -2.1312 -8.6743 -1936
19.4086 -2.1314 -8.6648 -1945
19.4061 -2.1312 -8.6530 -1944
19.4044 -2.1309 -8.6418 -1949
19.4046 -2.1397 -8.6438 -1952
19.4041 -2.1397 -8.6540 -1941
19.4064 -2.1399 -8.6655 -1946
19.4061 -2.1399 -8.6760 -1941
19.4029 -2.1484 -8.6748 -1939
19.4054 -2.1489 -8.6653 -1944
19.4039 -2.1487 -8.6540 -1944
19.4016 -2.1484 -8.6425 -1949
19.4051 -2.0869 -8.5878 -2034
19.4031 -2.0954 -8.5898 -2032
19.4116 -2.1054 -8.5958 -2026
19.4049 -2.1134 -8.5873 -2028
19.4059 -2.1312 -8.5900 -2031
19.4001 -2.1482 -8.5893 -2020
19.4636 -2.1109 -8.6083 -2040
19.4159 -2.0262 -8.6763 -1937
19.4126 -2.0257 -8.6643 -1942
19.4106 -2.0254 -8.6528 -1947
19.4124 -2.0257 -8.6430 -1953
19.4129 -2.0344 -8.6440 -1944
19.4136 -2.0347 -8.6548 -1941
19.4141 -2.0347 -8.6658 -1943
19.4144 -2.0347 -8.6765 -1938
19.4139 -2.0434 -8.6720 -1941
19.4116 -2.0434 -8.6603 -1939
19.4126 -2.0434 -8.6503 -1946
19.4064 -2.0427 -8.6368 -1955
19.4086 -2.0517 -8.6405 -1951
19.4121 -2.0522 -8.6525 -1947
19.4139 -2.0524 -8.6638 -1947
19.4114 -2.0522 -8.6735 -1942
19.4144 -2.0614 -8.6768 -1939
19.4124 -2.0612 -8.6655 -1942
19.4106 -2.0609 -8.6540 -1944
19.4109 -2.0609 -8.6435 -1946
19.4101 -2.0699 -8.6453 -1942
19.4116 -2.0702 -8.6568 -1949
19.4086 -2.0699 -8.6658 -1945
19.4099 -2.0699 -8.6770 -1947
19.4099 -2.0787 -8.6748 -1941
19.4091 -2.0787 -8.6638 -1947
19.4094 -2.0787 -8.6535 -1949
19.4054 -2.0782 -8.6410 -1956
19.4029 -2.0247 -8.5863 -2014
19.4041 -2.0337 -8.5875 -2025
19.4009 -2.0422 -8.5920 -2017
19.4241 -2.0447 -8.5918 -2037
19.4084 -2.0517 -8.5878 -2028
19.4029 -2.0602 -8.5873 -2007
19.4574 -2.0749 -8.6030 -2038
19.4076 -2.0784 -8.5893 -2034
19.6261 -2.0569 -8.6753 -2036
19.4121 -1.9639 -8.6380 -1952
19.4201 -1.9647 -8.6520 -1949
19.4176 -1.9644 -8.6615 -1940
19.4179 -1.9644 -8.6723 -1934
19.4186 -1.9737 -8.6733 -1934
19.4189 -1.9737 -8.6628 -1943
19.4151 -1.9732 -8.6505 -1951
19.4134 -1.9732 -8.6393 -1961
19.4141 -1.9819 -8.6410 -1950
19.4191 -1.9824 -8.6538 -1946
19.4186 -1.9824 -8.6640 -1947
19.4199 -1.9827 -8.6753 -1941
19.4176 -1.9912 -8.6728 -1941
19.4174 -1.9912 -8.6620 -1940
19.4171 -1.9909 -8.6515 -1942
19.4104 -1.9904 -8.6378 -1950
19.4104 -1.9994 -8.6375 -1957
19.4169 -2.0002 -8.6510 -1947
19.4169 -2.0002 -8.6615 -1943
19.4164 -1.9999 -8.6720 -1937
19.4159 -2.0087 -8.6743 -1940
19.4156 -2.0087 -8.6638 -1944
19.4151 -2.0084 -8.6528 -1943
19.4124 -2.0082 -8.6410 -1951
19.4094 -2.0169 -8.6400 -1950
19.4166 -2.0177 -8.6538 -1944
19.4149 -2.0174 -8.6635 -1943
19.4146 -2.0174 -8.6740 -1934
19.4091 -1.9637 -8.5843 -2021
19.3999 -1.9627 -8.5908 -1984
19.4211 -1.9739 -8.5900 -2018
19.4339 -1.9839 -8.5970 -2031
19.4409 -1.9934 -8.5988 -2037
19.4249 -2.0009 -8.5913 -2035
19.4234 -2.0094 -8.5935 -2034
19.4059 -2.0164 -8.5858 -2019
19.4246 -1.9039 -8.6748 -1940
19.4241 -1.9037 -8.6640 -1944
19.4266 -1.9039 -8.6545 -1946
19.4201 -1.9034 -8.6410 -1955
19.4011 -1.9014 -8.6220 -1965
19.4201 -1.9119 -8.6405 -1951
19.4229 -1.9122 -8.6520 -1943
19.4226 -1.9122 -8.6625 -1943
19.4229 -1.9122 -8.6733 -1941
19.4224 -1.9212 -8.6743 -1943
19.4226 -1.9212 -8.6638 -1947
19.4209 -1.9212 -8.6525 -1948
19.4176 -1.9207 -8.6405 -1958
19.4194 -1.9294 -8.6420 -1951
19.4216 -1.9297 -8.6535 -1944
19.4216 -1.9297 -8.6640 -1942
19.4229 -1.9299 -8.6753 -1943
19.4201 -1.9384 -8.6713 -1942
19.4196 -1.9384 -8.6608 -1940
19.4206 -1.9387 -8.6505 -1942
19.4149 -1.9379 -8.6375 -1954
19.4119 -1.9467 -8.6353 -1957
19.4194 -1.9474 -8.6493 -1938
19.4206 -1.9474 -8.6603 -1936
19.4204 -1.9474 -8.6708 -1926
19.4189 -1.9562 -8.6738 -1943
19.4224 -1.9564 -8.6648 -1949
19.4201 -1.9562 -8.6533 -1949
19.4161 -1.9559 -8.6410 -1953
19.4026 -1.9017 -8.5913 -1977
19.4226 -1.9037 -8.5895 -2011
19.4259 -1.9124 -8.5905 -2025
19.4001 -1.9099 -8.5895 -1987
19.4031 -1.9192 -8.5920 -1980
19.4206 -1.9209 -8.5893 -2024
19.4151 -1.9289 -8.5875 -2033
19.4036 -1.9279 -8.5928 -1990
19.4096 -1.9374 -8.5930 -2012
19.4224 -1.9387 -8.5883 -2028
19.4276 -1.9482 -8.5898 -2027
19.4064 -1.9459 -8.5908 -1988
19.4196 -1.9562 -8.5903 -2017
19.7341 -2.1134 -8.7233 -2036
19.7569 -2.0617 -8.7323 -2031
19.8989 -2.0947 -8.7910 -2005
19.8624 -2.1359 -8.7793 -2031
19.8254 -2.0239 -8.7598 -2031
19.8824 -2.0387 -8.7833 -2016
19.9041 -2.0502 -8.7925 -2010
19.8701 -2.0554 -8.7803 -2018
19.8784 -2.0654 -8.7840 -2021
19.7109 -1.9584 -8.7075 -2034
19.8411 -1.9987 -8.7660 -2026
19.8831 -1.9667 -8.7830 -2019
19.9034 -2.0137 -8.7923 -2009
19.8949 -2.0219 -8.7888 -2017
19.8801 -1.9209 -8.7790 -2033
19.8814 -1.9487 -8.7818 -2020
19.8699 -1.9562 -8.7763 -2020
19.4014 -1.8664 -8.8075 -1919
19.4014 -1.8134 -8.8090 -1908
19.4036 -1.8667 -8.7873 -1944
19.4076 -1.8754 -8.7913 -1933
19.4219 -1.8329 -8.7328 -1961
19.4256 -1.8334 -8.7240 -1940
19.4274 -1.8334 -8.7143 -1941
19.4304 -1.8337 -8.7053 -1940
19.4276 -1.8334 -8.6935 -1948
19.4311 -1.8337 -8.6845 -1941
19.4289 -1.8427 -8.6810 -1947
19.4309 -1.8427 -8.6923 -1949
19.4276 -1.8424 -8.7015 -1942
19.4271 -1.8424 -8.7118 -1945
19.4246 -1.8422 -8.7213 -1935
19.4214 -1.8419 -8.7303 -1950
19.4126 -1.8412 -8.7370 -1970
19.4011 -1.8399 -8.7423 -1978
19.4081 -1.8492 -8.7375 -1974
19.4174 -1.8502 -8.7310 -1959
19.4241 -1.8507 -8.7235 -1939
19.4271 -1.8509 -8.7145 -1938
19.4256 -1.8509 -8.7033 -1944
19.4271 -1.8509 -8.6933 -1942
19.4279 -1.8512 -8.6833 -1940
19.4266 -1.8597 -8.6825 -1941
19.4264 -1.8597 -8.6930 -1942
19.4274 -1.8597 -8.7040 -1943
19.4259 -1.8597 -8.7138 -1943
19.4216 -1.8592 -8.7225 -1941
19.4216 -1.8592 -8.7330 -1951
19.4064 -1.8577 -8.7365 -1970
19.4069 -1.8669 -8.7363 -1970
19.4209 -1.8682 -8.7320 -1956
19.4231 -1.8684 -8.7225 -1937
19.4246 -1.8687 -8.7125 -1935
19.4271 -1.8687 -8.7033 -1940
19.4254 -1.8687 -8.6920 -1942
19.4269 -1.8687 -8.6820 -1937
19.4246 -1.8769 -8.6833 -1943
19.4259 -1.8772 -8.6943 -1947
19.4249 -1.8769 -8.7045 -1947
19.4239 -1.8769 -8.7145 -1941
19.4214 -1.8767 -8.7240 -1931
19.4164 -1.8762 -8.7323 -1959
19.4051 -1.8752 -8.7375 -1971
19.4026 -1.8839 -8.7373 -1974
19.4156 -1.8852 -8.7328 -1958
19.4211 -1.8857 -8.7245 -1935
19.4224 -1.8859 -8.7145 -1940
19.4239 -1.8859 -8.7048 -1941
19.4254 -1.8862 -8.6948 -1938
19.4246 -1.8859 -8.6840 -1938
19.4266 -1.8949 -8.6833 -1938
19.4244 -1.8949 -8.6928 -1941
19.4239 -1.8947 -8.7033 -1939
19.4226 -1.8947 -8.7133 -1939
19.4214 -1.8944 -8.7233 -1939
19.4169 -1.8942 -8.7318 -1951
19.4039 -1.8929 -8.7365 -1976
19.4339 -1.7722 -8.7960 -1919
19.4004 -1.7784 -8.7965 -1939
19.4261 -1.7807 -8.7978 -1925
19.4281 -1.7809 -8.7880 -1940
19.4524 -1.7917 -8.8055 -1910
19.4249 -1.7982 -8.7975 -1913
19.4301 -1.7987 -8.7893 -1942
19.4039 -1.8049 -8.7753 -1950
19.4169 -1.8062 -8.7918 -1921
19.4116 -1.8144 -8.8030 -1916
19.4146 -1.8147 -8.7938 -1916
19.4239 -1.8154 -8.7873 -1940
19.4051 -1.8314 -8.7783 -1954
19.4331 -1.7722 -8.6798 -1935
19.4336 -1.7722 -8.6908 -1944
19.4321 -1.7722 -8.7005 -1949
19.4316 -1.7719 -8.7108 -1950
19.4304 -1.7719 -8.7208 -1941
19.4269 -1.7717 -8.7298 -1952
19.4184 -1.7709 -8.7365 -1971
19.4046 -1.7697 -8.7408 -1979
19.4094 -1.7792 -8.7373 -1975
19.4244 -1.7807 -8.7335 -1965
19.4276 -1.7809 -8.7245 -1946
19.4301 -1.7812 -8.7150 -1939
19.4304 -1.7812 -8.7048 -1944
19.4329 -1.7814 -8.6953 -1940
19.4324 -1.7812 -8.6845 -1939
19.4346 -1.7899 -8.6818 -1938
19.4306 -1.7897 -8.6905 -1944
19.4316 -1.7897 -8.7015 -1936
19.4311 -1.7897 -8.7118 -1934
19.4291 -1.7894 -8.7215 -1942
19.4291 -1.7894 -8.7320 -1948
19.4164 -1.7882 -8.7368 -1974
19.4026 -1.7869 -8.7410 -1982
19.4081 -1.7964 -8.7370 -1977
19.4246 -1.7979 -8.7340 -1960
19.4291 -1.7984 -8.7255 -1948
19.4299 -1.7984 -8.7153 -1938
19.4309 -1.7987 -8.7053 -1948
19.4319 -1.7987 -8.6953 -1943
19.4296 -1.7984 -8.6838 -1938
19.4311 -1.8074 -8.6823 -1942
19.4299 -1.8074 -8.6923 -1946
19.4289 -1.8072 -8.7025 -1946
19.4291 -1.8072 -8.7130 -1938
19.4266 -1.8072 -8.7225 -1927
19.4231 -1.8067 -8.7315 -1956
19.4111 -1.8057 -8.7365 -1969
19.4024 -1.8047 -8.7430 -1974
19.4076 -1.8139 -8.7378 -1973
19.4209 -1.8152 -8.7333 -1959
19.4274 -1.8157 -8.7258 -1943
19.4256 -1.8157 -8.7143 -1939
19.4291 -1.8159 -8.7053 -1948
19.4276 -1.8157 -8.6943 -1941
19.4294 -1.8159 -8.6845 -1940
19.4281 -1.8247 -8.6840 -1942
19.4281 -1.8247 -8.6945 -1943
19.4274 -1.8247 -8.7048 -1942
19.4269 -1.8247 -8.7150 -1937
19.4256 -1.8244 -8.7250 -1948
19.4199 -1.8239 -8.7328 -1960
19.4099 -1.8229 -8.7388 -1974
19.4106 -1.8319 -8.7385 -1973
19.4544 -1.7564 -8.8068 -1859
19.4409 -1.7379 -8.7975 -1884
19.4069 -1.7349 -8.7928 -1917
19.4361 -1.7464 -8.8008 -1861
19.4286 -1.7457 -8.7865 -1892
19.4036 -1.7434 -8.7438 -1986
19.4026 -1.7517 -8.7730 -1933
19.4481 -1.7649 -8.8023 -1903
19.4069 -1.7612 -8.7733 -1943
19.4371 -1.7374 -8.6800 -1938
19.4349 -1.7372 -8.6898 -1938
19.4371 -1.7374 -8.7013 -1940
19.4346 -1.7372 -8.7105 -1939
19.4339 -1.7372 -8.7208 -1939
19.4256 -1.7364 -8.7278 -1953
19.4204 -1.7359 -8.7358 -1966
19.4094 -1.7349 -8.7413 -1973
19.4124 -1.7442 -8.7370 -1975
19.4276 -1.7457 -8.7333 -1963
19.4331 -1.7462 -8.7253 -1944
19.4329 -1.7462 -8.7145 -1941
19.4334 -1.7462 -8.7043 -1945
19.4359 -1.7464 -8.6948 -1942
19.4354 -1.7464 -8.6843 -1939
19.4351 -1.7547 -8.6823 -1945
19.4331 -1.7544 -8.6918 -1941
19.4311 -1.7542 -8.7015 -1946
19.4321 -1.7544 -8.7125 -1944
19.4329 -1.7544 -8.7235 -1940
19.4271 -1.7539 -8.7315 -1959
19.4134 -1.7527 -8.7358 -1971
19.4051 -1.7519 -8.7425 -1984
19.4069 -1.7612 -8.7415 -1976
19.4159 -1.7619 -8.7350 -1967
19.4284 -1.7629 -8.7300 -1954
19.4301 -1.7632 -8.7205 -1941
19.4331 -1.7634 -8.7113 -1945
19.4341 -1.7637 -8.7013 -1942
19.4334 -1.7634 -8.6905 -1942
19.4346 -1.7637 -8.6805 -1945
19.4291 -1.8337 -8.6730 -1940
19.4296 -1.8337 -8.6630 -1943
19.4291 -1.8337 -8.6523 -1943
19.4261 -1.8334 -8.6405 -1951
19.4159 -1.8414 -8.6328 -1955
19.4279 -1.8424 -8.6488 -1940
19.4274 -1.8424 -8.6590 -1940
19.4259 -1.8424 -8.6690 -1940
19.4274 -1.8509 -8.6725 -1937
19.4269 -1.8509 -8.6618 -1938
19.4274 -1.8509 -8.6515 -1938
19.4229 -1.8507 -8.6388 -1952
19.4031 -1.8487 -8.6195 -1963
19.4009 -1.8572 -8.6183 -1959
19.4214 -1.8592 -8.6380 -1956
19.4251 -1.8594 -8.6500 -1947
19.4276 -1.8597 -8.6618 -1941
19.4279 -1.8599 -8.6725 -1939
19.4236 -1.8684 -8.6700 -1940
19.4281 -1.8689 -8.6618 -1942
19.4241 -1.8684 -8.6493 -1944
19.4194 -1.8679 -8.6368 -1953
19.4011 -1.8747 -8.6200 -1959
19.4211 -1.8767 -8.6395 -1952
19.4241 -1.8769 -8.6513 -1945
19.4251 -1.8769 -8.6623 -1942
19.4231 -1.8769 -8.6720 -1936
19.4266 -1.8862 -8.6743 -1936
19.4236 -1.8859 -8.6623 -1945
19.4221 -1.8859 -8.6513 -1940
19.4219 -1.8857 -8.6405 -1948
19.4016 -1.8837 -8.6210 -1961
19.4181 -1.8942 -8.6373 -1953
19.4254 -1.8949 -8.6510 -1946
19.4256 -1.8949 -8.6618 -1938
19.4231 -1.8947 -8.6713 -1937
19.4259 -1.8332 -8.5878 -2024
19.4399 -1.8437 -8.5908 -2037
19.4059 -1.8404 -8.5863 -2026
19.4046 -1.8402 -8.5963 -1973
19.4006 -1.8399 -8.6050 -1963
19.4011 -1.8399 -8.6158 -1958
19.4006 -1.8484 -8.6080 -1961
19.4026 -1.8487 -8.5985 -1970
19.4049 -1.8489 -8.5888 -2019
19.4404 -1.8522 -8.5940 -2035
19.4406 -1.8609 -8.5938 -2033
19.4076 -1.8579 -8.5898 -2020
19.4041 -1.8574 -8.5988 -1967
19.4139 -1.8674 -8.5920 -2017
19.4244 -1.8684 -8.5863 -2036
19.4149 -1.8759 -8.5843 -2034
19.4059 -1.8752 -8.5905 -1988
19.4036 -1.8749 -8.6000 -1957
19.4084 -1.8844 -8.5925 -1985
19.4244 -1.8859 -8.5890 -2023
19.4236 -1.8947 -8.5873 -2019
19.4081 -1.8932 -8.5908 -1985
19.4001 -1.8924 -8.5978 -1964
19.4206 -1.7709 -8.6320 -1951
19.4316 -1.7719 -8.6475 -1945
19.4341 -1.7722 -8.6593 -1938
19.4329 -1.7722 -8.6693 -1936
19.4329 -1.7814 -8.6743 -1942
19.4331 -1.7814 -8.6640 -1939
19.4321 -1.7812 -8.6530 -1938
19.4306 -1.7812 -8.6418 -1951
19.4071 -1.7789 -8.6208 -1955
19.4226 -1.7889 -8.6343 -1954
19.4311 -1.7897 -8.6485 -1941
19.4321 -1.7897 -8.6595 -1936
19.4314 -1.7897 -8.6698 -1942
19.4341 -1.7989 -8.6753 -1939
19.4336 -1.7989 -8.6645 -1938
19.4314 -1.7987 -8.6530 -1938
19.4276 -1.7982 -8.6410 -1947
19.4066 -1.7964 -8.6210 -1954
19.4029 -1.8047 -8.6170 -1958
19.4211 -1.8064 -8.6355 -1952
19.4301 -1.8074 -8.6503 -1946
19.4304 -1.8074 -8.6608 -1939
19.4284 -1.8072 -8.6705 -1941
19.4289 -1.8159 -8.6738 -1941
19.4309 -1.8162 -8.6640 -1945
19.4271 -1.8157 -8.6518 -1946
19.4274 -1.8157 -8.6413 -1955
19.4044 -1.8137 -8.6208 -1961
19.4039 -1.8224 -8.6205 -1957
19.4269 -1.8247 -8.6413 -1946
19.4286 -1.8247 -8.6525 -1943
19.4301 -1.8249 -8.6638 -1941
19.4294 -1.8249 -8.6740 -1944
19.4061 -1.8314 -8.6210 -1960
19.4369 -1.7724 -8.5868 -2031
19.4214 -1.7709 -8.5905 -1994
19.4104 -1.7699 -8.5960 -1961
19.4096 -1.7699 -8.6063 -1963
19.4081 -1.7699 -8.6160 -1951
19.4066 -1.7789 -8.6103 -1956
19.4076 -1.7789 -8.6000 -1955
19.4149 -1.7797 -8.5928 -1977
19.4306 -1.7812 -8.5893 -2013
19.4401 -1.7904 -8.5893 -2029
19.4196 -1.7884 -8.5908 -1991
19.4089 -1.7877 -8.5965 -1968
19.4079 -1.7874 -8.6065 -1967
19.4046 -1.7872 -8.6155 -1958
19.4031 -1.7959 -8.6090 -1960
19.4076 -1.7964 -8.6005 -1958
19.4129 -1.7969 -8.5923 -1978
19.4311 -1.7987 -8.5900 -2014
19.4359 -1.8079 -8.5898 -2023
19.4136 -1.8057 -8.5903 -1991
19.4061 -1.8052 -8.5975 -1963
19.4031 -1.8049 -8.6065 -1961
19.4046 -1.8137 -8.6103 -1960
19.4054 -1.8137 -8.6000 -1974
19.4126 -1.8144 -8.5928 -2010
19.4216 -1.8152 -8.5863 -2032
19.4249 -1.8244 -8.5878 -2031
19.4064 -1.8227 -8.5903 -2015
19.4049 -1.8224 -8.6000 -1966
19.4034 -1.8224 -8.6098 -1963
19.4034 -1.8312 -8.6093 -1956
19.4044 -1.8312 -8.5993 -1965
19.4031 -1.8312 -8.5883 -2005
19.4241 -1.7362 -8.6320 -1954
19.4344 -1.7372 -8.6470 -1945
19.4369 -1.7374 -8.6588 -1935
19.4379 -1.7374 -8.6698 -1933
19.4334 -1.7462 -8.6728 -1936
19.4369 -1.7464 -8.6638 -1932
19.4361 -1.7464 -8.6530 -1939
19.4304 -1.7459 -8.6400 -1952
19.4099 -1.7439 -8.6205 -1958
19.4106 -1.7524 -8.6185 -1956
19.4274 -1.7539 -8.6365 -1953
19.4336 -1.7544 -8.6498 -1948
19.4351 -1.7547 -8.6610 -1934
19.4341 -1.7544 -8.6710 -1938
19.4341 -1.7634 -8.6698 -1941
19.4316 -1.7634 -8.6583 -1937
19.4321 -1.7634 -8.6480 -1947
19.4231 -1.7624 -8.6335 -1959
19.4084 -1.7612 -8.6165 -1958
19.4426 -1.7379 -8.5875 -2030
19.4231 -1.7362 -8.5895 -1994
19.4116 -1.7352 -8.5950 -1962
19.4099 -1.7349 -8.6048 -1951
19.4084 -1.7349 -8.6145 -1956
19.4109 -1.7442 -8.6105 -1961
19.4094 -1.7439 -8.5995 -1962
19.4144 -1.7444 -8.5913 -1980
19.4254 -1.7454 -8.5858 -2023
19.4314 -1.7542 -8.5855 -2034
19.4191 -1.7532 -8.5908 -1990
19.4134 -1.7527 -8.5988 -1960
19.4101 -1.7524 -8.6078 -1958
19.4081 -1.7612 -8.6058 -1959
19.4099 -1.7614 -8.5960 -1960
19.4236 -1.7627 -8.5918 -1989
19.4436 -1.7644 -8.5900 -2029
19.8379 -1.7824 -8.7573 -2036
19.9634 -2.1197 -8.8138 -1998
19.9544 -2.1279 -8.8120 -1993
19.9654 -2.1382 -8.8148 -1980
20.0236 -2.1167 -8.8170 -1998
20.0119 -2.1154 -8.8225 -1976
19.9899 -2.1132 -8.8235 -1984
19.9994 -2.1234 -8.8188 -1966
20.0229 -2.1259 -8.8183 -1984
20.0299 -2.1267 -8.8105 -2016
20.0294 -2.1359 -8.8128 -1967
20.0074 -2.1337 -8.8140 -1958
19.9731 -2.1299 -8.8095 -1957
19.9804 -2.1397 -8.8105 -1949
20.0281 -2.1447 -8.8208 -1986
19.9729 -2.1479 -8.8175 -1977
19.9569 -2.0914 -8.8000 -1952
19.9271 -2.0884 -8.7975 -1955
19.9474 -2.0997 -8.8018 -1964
20.0149 -2.0884 -8.8028 -1890
20.0346 -2.0997 -8.8020 -1858
20.0116 -2.0972 -8.8028 -1923
19.9846 -2.0944 -8.8015 -1950
19.9781 -2.1029 -8.8045 -1979
20.0019 -2.1054 -8.8040 -1960
20.0239 -2.1077 -8.8030 -1948
19.9391 -2.0264 -8.7975 -1958
19.9669 -2.0384 -8.8008 -1947
19.9386 -2.0354 -8.7988 -1961
19.9419 -2.0449 -8.7988 -1953
19.9711 -2.0572 -8.8008 -1947
19.9429 -2.0542 -8.7990 -1947
19.9384 -2.0627 -8.7998 -1949
19.9684 -2.0657 -8.8023 -1949
19.9654 -2.0747 -8.8008 -1980
19.9361 -2.0714 -8.7988 -1946
19.9361 -2.0802 -8.8008 -1938
19.9636 -2.0832 -8.8020 -1958
20.0186 -2.0252 -8.8005 -1894
19.9736 -2.0299 -8.8018 -1938
19.9949 -2.0322 -8.8005 -1863
20.0196 -2.0347 -8.8005 -1886
20.0159 -2.0434 -8.8008 -1847
19.9919 -2.0409 -8.8010 -1861
19.9716 -2.0479 -8.8010 -1931
19.9986 -2.0507 -8.8023 -1841
20.0204 -2.0529 -8.8010 -1838
20.0206 -2.0622 -8.8010 -1813
19.9986 -2.0599 -8.8020 -1872
19.9941 -2.0684 -8.8028 -1902
20.0171 -2.0707 -8.8020 -1834
20.0164 -2.0799 -8.8018 -1834
19.9946 -2.0777 -8.8030 -1914
19.9909 -2.0859 -8.8033 -1922
20.0889 -2.1237 -8.8243 -1996
