1599
14.8857 49.1908 -8.5020 -2004
14.8849 49.1878 -8.5112 -1986
14.8812 49.1755 -8.5192 -1979
14.8857 49.2910 -8.5195 -1976
14.8847 49.2873 -8.5087 -1983
14.8852 49.2555 -8.5095 -1998
14.8839 49.2510 -8.5185 -1988
14.8824 49.2463 -8.5275 -1977
14.8917 49.3438 -8.5067 -1985
14.8944 49.3525 -8.5182 -1979
14.8954 49.3228 -8.5350 -1979
14.8947 49.3208 -8.5047 -1996
14.9004 49.3055 -8.5082 -2009
14.8932 49.3810 -8.5135 -1980
14.8947 49.3860 -8.5045 -1982
14.9194 49.4025 -8.5587 -1976
14.8977 49.3960 -8.4960 -1991
14.9074 49.4278 -8.4915 -2010
14.9012 49.3753 -8.4925 -2017
14.9007 49.3735 -8.5020 -1995
14.9019 49.3775 -8.5325 -1979
14.9227 49.4463 -8.5542 -1976
14.9292 49.4678 -8.5677 -1971
14.8989 49.4680 -8.5342 -1981
14.8994 49.4700 -8.5242 -1991
14.9012 49.4760 -8.5152 -2003
14.9054 49.4563 -8.5022 -1993
14.9019 49.4445 -8.5100 -1986
14.9004 49.4398 -8.5192 -1979
14.9089 49.4683 -8.5340 -1984
14.9177 49.4623 -8.5377 -1981
14.9177 49.5305 -8.5552 -1980
14.9344 49.5525 -8.5585 -1977
14.9349 49.5545 -8.5790 -1977
14.9304 49.5045 -8.5755 -1981
14.9314 49.5083 -8.5660 -1977
14.9317 49.5088 -8.5557 -1973
14.9049 49.5545 -8.5077 -1986
14.9104 49.5405 -8.4967 -1999
14.9077 49.5320 -8.5052 -1984
14.9049 49.5228 -8.5137 -1977
14.9062 49.5268 -8.5242 -1980
14.9394 49.6023 -8.5882 -1983
14.9369 49.5940 -8.5765 -1973
14.9379 49.5643 -8.5707 -1973
14.9142 49.6190 -8.4965 -1986
14.9087 49.6005 -8.5032 -1976
14.9099 49.5713 -8.5210 -1975
14.9097 49.5700 -8.5002 -1992
14.9224 49.6123 -8.4975 -2009
14.9302 49.6065 -8.5480 -1981
14.9417 49.6768 -8.5595 -1977
14.9417 49.6443 -8.5645 -1977
14.9457 49.6575 -8.5765 -1977
14.9422 49.6458 -8.5845 -1980
14.9454 49.6573 -8.5962 -1985
14.9419 49.6455 -8.6042 -1974
14.9147 49.6550 -8.5157 -1981
14.9132 49.6503 -8.5047 -1977
14.9222 49.6798 -8.4997 -2002
14.9164 49.6268 -8.4877 -1999
14.9157 49.6243 -8.5175 -1983
14.9347 49.6530 -8.5452 -1980
14.9472 49.7290 -8.5557 -1977
14.9502 49.7393 -8.5675 -1984
14.9504 49.7400 -8.5777 -1987
14.9509 49.7415 -8.5882 -1980
14.9524 49.7463 -8.5990 -1980
14.9479 49.7315 -8.6065 -1975
14.9459 49.6905 -8.6125 -1970
14.9507 49.7065 -8.6050 -1974
14.9459 49.6905 -8.5922 -1980
14.9469 49.6940 -8.5827 -1980
14.9452 49.6883 -8.5715 -1977
14.9207 49.7423 -8.5022 -1984
14.9179 49.6995 -8.4895 -1996
14.9169 49.6963 -8.4990 -1984
14.9214 49.7113 -8.5117 -1980
14.9357 49.7248 -8.5377 -1980
14.9262 49.6933 -8.4920 -2017
14.9439 49.7183 -8.5437 -1980
14.8672 49.8020 -8.6132 -1966
14.8464 49.8345 -8.6110 -1974
14.8512 49.8500 -8.6037 -1974
14.8622 49.8518 -8.6022 -1971
14.8592 49.8413 -8.6105 -1978
14.8614 49.8150 -8.6080 -1973
14.8749 49.8608 -8.6057 -1975
14.9524 49.7813 -8.6085 -1974
14.9517 49.7783 -8.5977 -1978
14.9529 49.7823 -8.5882 -1978
14.9532 49.7830 -8.5782 -1979
14.9554 49.7903 -8.5692 -1981
14.9522 49.7800 -8.5575 -1978
14.9314 49.8098 -8.4882 -2010
14.9222 49.7790 -8.4932 -1991
14.9289 49.8015 -8.5070 -1981
14.9227 49.7485 -8.5135 -1985
14.9224 49.7480 -8.4932 -1994
14.9284 49.7678 -8.4867 -2011
14.9407 49.7755 -8.5327 -1978
14.9584 49.8683 -8.6047 -1974
14.9602 49.8735 -8.5955 -1974
14.9572 49.8643 -8.5837 -1982
14.9592 49.8705 -8.5745 -1981
14.9587 49.8688 -8.5540 -1979
14.9539 49.8198 -8.5505 -1977
14.9549 49.8230 -8.5612 -1981
14.9559 49.8260 -8.5717 -1978
14.9569 49.8290 -8.5822 -1984
14.9557 49.8250 -8.5915 -1982
14.9552 49.8235 -8.6012 -1982
14.9544 49.8215 -8.6107 -1978
14.9307 49.8433 -8.5162 -1982
14.9287 49.8368 -8.5050 -1982
14.9327 49.8500 -8.4972 -1998
14.9342 49.8188 -8.5202 -1986
14.9459 49.8268 -8.5367 -1982
14.8557 49.8995 -8.6100 -1977
14.8752 49.9308 -8.6075 -1992
14.8869 49.9345 -8.6065 -1982
14.8909 49.9143 -8.6050 -1978
14.9594 49.9033 -8.5547 -1977
14.9357 49.9290 -8.5192 -1979
14.9342 49.9243 -8.5085 -1979
14.9349 49.9270 -8.4990 -1990
14.9352 49.8905 -8.4900 -2003
14.9329 49.8830 -8.4990 -1989
14.9309 49.8760 -8.5080 -1982
14.9377 49.8985 -8.5220 -1982
14.9399 49.8743 -8.5315 -1984
14.9602 49.9058 -8.5450 -1979
14.9629 49.9150 -8.5670 -1978
14.9672 49.9288 -8.5792 -1979
14.9612 49.9090 -8.5860 -1978
14.9682 49.9328 -8.6002 -1981
14.9619 49.9118 -8.6067 -1977
14.9604 49.8748 -8.5652 -1982
14.9589 49.9378 -8.5525 -1978
14.9397 49.9750 -8.4927 -1988
14.9387 49.9713 -8.5022 -1982
14.9429 49.9858 -8.5150 -1984
14.9437 49.9560 -8.4940 -2002
14.9589 49.9698 -8.5442 -1979
14.9667 49.9958 -8.6090 -1974
14.9649 49.9578 -8.6065 -1981
14.9639 49.9550 -8.5960 -1979
14.9672 49.9653 -8.5875 -1989
14.9647 49.9573 -8.5760 -1981
14.9652 49.9590 -8.5662 -1981
14.9429 49.9855 -8.4842 -2006
12.9712 50.0528 -8.6522 -1894
12.9804 50.0510 -8.6497 -1902
12.9892 50.0443 -8.6525 -1938
12.9304 50.1275 -8.6225 -1917
12.9384 50.1195 -8.6515 -1921
12.9384 50.0800 -8.6542 -1917
12.9629 50.0975 -8.6600 -1929
12.9319 50.1335 -8.6337 -1917
12.9829 50.1368 -8.6647 -1915
12.9619 50.2495 -8.6332 -1941
12.9824 50.2113 -8.6747 -1944
13.0097 50.0465 -8.6520 -1932
13.0132 50.0218 -8.6472 -1954
13.0319 50.0550 -8.6542 -1953
13.0459 50.0318 -8.6515 -1958
13.0514 50.0155 -8.6495 -1957
13.0682 50.0415 -8.6547 -1955
13.0949 50.0270 -8.6532 -1938
13.1117 50.0543 -8.6567 -1955
13.1089 50.0055 -8.6582 -1953
13.0104 50.0878 -8.6572 -1928
13.0482 50.0780 -8.6587 -1964
13.0907 50.0875 -8.6620 -1963
13.1004 50.0860 -8.6617 -1954
13.1509 50.0498 -8.6572 -1939
13.1614 50.0530 -8.6587 -1946
13.1582 50.0018 -8.6592 -1936
13.1709 50.0115 -8.6600 -1943
13.1924 50.0573 -8.6607 -1943
13.2089 50.0418 -8.6607 -1961
13.2227 50.0570 -8.6617 -1957
13.2282 50.0373 -8.6592 -1962
13.2324 50.0185 -8.6537 -1976
13.2409 50.0118 -8.6535 -1964
13.1292 50.0828 -8.6617 -1946
13.1469 50.1123 -8.6677 -1940
13.1454 50.0685 -8.6612 -1940
13.1894 50.1200 -8.6697 -1954
13.2122 50.0935 -8.6647 -1947
13.0477 50.1540 -8.6600 -1934
13.0404 50.2418 -8.6765 -1936
13.0609 50.2443 -8.6762 -1918
13.1067 50.2275 -8.6760 -1951
13.2069 50.1488 -8.6737 -1956
12.9862 50.3045 -8.6732 -1931
12.9709 50.3225 -8.6410 -1922
13.0334 50.2930 -8.6835 -1917
13.0337 50.2568 -8.6752 -1936
13.0984 50.3105 -8.6885 -1938
13.1134 50.2908 -8.6862 -1940
13.0037 50.3328 -8.6875 -1919
13.0322 50.3650 -8.6960 -1896
13.0454 50.3778 -8.6962 -1896
13.0754 50.3385 -8.6905 -1895
13.1547 50.2550 -8.6827 -1941
13.2187 50.3080 -8.6920 -1935
13.2257 50.2970 -8.6907 -1921
13.1239 50.3685 -8.6990 -1902
13.1424 50.3253 -8.6937 -1942
13.1847 50.3333 -8.6950 -1923
13.2062 50.3773 -8.7027 -1884
13.2129 50.3263 -8.6957 -1924
13.0084 50.3903 -8.6780 -1924
13.0227 50.4058 -8.6900 -1907
13.0394 50.4315 -8.6927 -1906
13.0299 50.3953 -8.6965 -1919
13.0477 50.4258 -8.6965 -1891
13.0132 50.4095 -8.6710 -1913
13.0614 50.4400 -8.6870 -1924
13.0577 50.4250 -8.6942 -1887
13.0649 50.4145 -8.6945 -1903
13.0694 50.4315 -8.6872 -1916
13.0784 50.4293 -8.6850 -1929
13.0752 50.4170 -8.6930 -1929
13.0842 50.4110 -8.6957 -1906
13.0922 50.4415 -8.6907 -1864
13.0994 50.4305 -8.6962 -1849
13.1059 50.4168 -8.6957 -1903
13.1097 50.3925 -8.6912 -1916
13.0347 50.4525 -8.6877 -1878
13.0414 50.4790 -8.6822 -1890
13.0482 50.4653 -8.6885 -1914
13.0539 50.4493 -8.6902 -1916
13.0142 50.4900 -8.6597 -1865
13.0232 50.4873 -8.6640 -1888
13.0387 50.5073 -8.6675 -1867
13.0289 50.4703 -8.6715 -1895
13.0467 50.4985 -8.6752 -1911
13.0489 50.5073 -8.6665 -1918
13.0564 50.4975 -8.6837 -1913
13.0602 50.4740 -8.6845 -1915
13.0677 50.5025 -8.6792 -1921
13.0679 50.4648 -8.6810 -1922
13.0734 50.4475 -8.6800 -1932
13.0837 50.4498 -8.6785 -1931
13.0992 50.4685 -8.6852 -1870
13.1069 50.4975 -8.6802 -1876
13.1169 50.4975 -8.6775 -1904
13.1152 50.4918 -8.6865 -1892
13.1044 50.4500 -8.6895 -1871
13.1177 50.4620 -8.6935 -1911
13.0584 50.5050 -8.6750 -1925
13.0752 50.4923 -8.6757 -1932
13.0792 50.4695 -8.6737 -1931
13.0957 50.4953 -8.6662 -1924
13.0944 50.4908 -8.6755 -1922
13.1059 50.4943 -8.6695 -1889
13.1097 50.5083 -8.6617 -1913
13.1194 50.4305 -8.6875 -1902
13.1274 50.4218 -8.6975 -1918
13.1372 50.4193 -8.6977 -1911
13.1439 50.4080 -8.6965 -1916
13.1554 50.4143 -8.6982 -1911
13.1727 50.4413 -8.7035 -1914
13.1817 50.4360 -8.7020 -1900
13.1719 50.3990 -8.7057 -1893
13.1787 50.3853 -8.7035 -1907
13.1892 50.4255 -8.7002 -1889
13.2032 50.4408 -8.6945 -1922
13.1952 50.4100 -8.6992 -1914
13.2104 50.4320 -8.7020 -1860
13.2209 50.4335 -8.7022 -1818
13.2212 50.3950 -8.7065 -1877
13.2307 50.4308 -8.7025 -1823
13.2402 50.4295 -8.7035 -1884
13.1239 50.4860 -8.6875 -1897
13.1264 50.4960 -8.6792 -1919
13.1354 50.4918 -8.6780 -1938
13.1299 50.4708 -8.6845 -1910
13.1342 50.4480 -8.6920 -1910
13.1434 50.4838 -8.6880 -1909
13.1492 50.5055 -8.6817 -1933
13.1557 50.4898 -8.6795 -1926
13.1534 50.4813 -8.6882 -1917
13.1454 50.4508 -8.6930 -1915
13.1542 50.4468 -8.6930 -1929
13.1624 50.4793 -8.6885 -1924
13.1679 50.5000 -8.6820 -1918
13.1754 50.4903 -8.6810 -1893
13.1714 50.4753 -8.6885 -1890
13.1659 50.4543 -8.6950 -1910
13.1192 50.5063 -8.6587 -1922
13.1194 50.5073 -8.6690 -1901
13.1274 50.4998 -8.6697 -1928
13.1292 50.5060 -8.6607 -1910
13.1389 50.5050 -8.6597 -1903
13.1367 50.4960 -8.6685 -1915
13.1469 50.4973 -8.6700 -1918
13.1494 50.5063 -8.6615 -1900
13.1604 50.5083 -8.6625 -1903
13.1594 50.5045 -8.6720 -1906
13.1654 50.4900 -8.6702 -1904
13.1672 50.4968 -8.6615 -1922
13.1792 50.5050 -8.6530 -1926
13.1782 50.5010 -8.6625 -1931
13.1762 50.4933 -8.6712 -1918
13.1824 50.4793 -8.7000 -1888
13.1847 50.4870 -8.6912 -1889
13.1862 50.4933 -8.6822 -1917
13.1967 50.4935 -8.6815 -1913
13.1939 50.4828 -8.6897 -1929
13.1919 50.4748 -8.6985 -1913
13.2007 50.4698 -8.6977 -1915
13.2049 50.4863 -8.6905 -1925
13.2074 50.4955 -8.6820 -1929
13.2142 50.4828 -8.6815 -1932
13.2139 50.4815 -8.6915 -1936
13.2174 50.4580 -8.6962 -1897
13.2254 50.4885 -8.6915 -1876
13.2272 50.4953 -8.6825 -1923
13.2342 50.4840 -8.6807 -1931
13.2339 50.4825 -8.6905 -1926
13.2282 50.4603 -8.6967 -1899
13.2367 50.4545 -8.6965 -1877
13.2432 50.4793 -8.6907 -1915
13.2449 50.4855 -8.6817 -1903
13.1862 50.4930 -8.6720 -1928
13.1897 50.5060 -8.6642 -1925
13.2002 50.5065 -8.6635 -1911
13.1982 50.4990 -8.6722 -1904
13.2089 50.5010 -8.6727 -1933
13.2064 50.4913 -8.6610 -1936
13.2182 50.4978 -8.6637 -1921
13.2169 50.4930 -8.6732 -1942
13.2272 50.4953 -8.6725 -1925
13.2289 50.5018 -8.6635 -1918
13.2392 50.5023 -8.6637 -1935
13.2362 50.4913 -8.6717 -1928
13.0157 50.5375 -8.6547 -1950
13.0339 50.5673 -8.6525 -1940
13.0244 50.5303 -8.6565 -1897
13.0309 50.5175 -8.6587 -1869
13.0372 50.5413 -8.6527 -1926
13.0452 50.5325 -8.6515 -1917
13.0399 50.5130 -8.6582 -1896
13.0504 50.5138 -8.6575 -1917
13.0559 50.5343 -8.6507 -1928
13.0692 50.5470 -8.6515 -1914
13.0612 50.5158 -8.6565 -1917
13.0594 50.5093 -8.6655 -1919
13.0697 50.5105 -8.6705 -1919
13.0709 50.5153 -8.6612 -1921
13.0789 50.5465 -8.6565 -1944
13.0909 50.5535 -8.6560 -1939
13.0797 50.5100 -8.6585 -1936
13.0802 50.5115 -8.6690 -1925
13.0894 50.5090 -8.6702 -1926
13.0899 50.5113 -8.6607 -1908
13.0922 50.5193 -8.6520 -1894
13.1049 50.5683 -8.6502 -1932
13.1024 50.5213 -8.6502 -1906
13.0997 50.5108 -8.6587 -1917
13.1127 50.5205 -8.6537 -1919
13.0304 50.5938 -8.6540 -1943
13.0544 50.6083 -8.6540 -1946
13.0602 50.5905 -8.6512 -1937
13.0699 50.5893 -8.6500 -1937
13.0852 50.6083 -8.6517 -1918
13.0959 50.6118 -8.6577 -1941
13.1059 50.6115 -8.6557 -1940
13.1157 50.5728 -8.6487 -1939
13.1252 50.5680 -8.6520 -1935
13.1287 50.5428 -8.6547 -1930
13.1319 50.5168 -8.6525 -1938
13.1452 50.5683 -8.6512 -1942
13.1519 50.5555 -8.6480 -1937
13.1404 50.5108 -8.6507 -1922
13.1547 50.5268 -8.6550 -1923
13.1649 50.5253 -8.6552 -1929
13.1729 50.5193 -8.6552 -1922
13.1837 50.5605 -8.6522 -1933
13.1924 50.5560 -8.6517 -1942
13.1937 50.5223 -8.6570 -1938
13.2059 50.5283 -8.6570 -1944
13.2164 50.5300 -8.6575 -1923
13.2347 50.5605 -8.6542 -1937
13.2212 50.5095 -8.6557 -1921
13.2342 50.5218 -8.6570 -1918
13.2449 50.5633 -8.6540 -1937
13.2447 50.5240 -8.6572 -1933
13.1314 50.6330 -8.6490 -1951
13.1434 50.5998 -8.6542 -1933
13.1707 50.6265 -8.6500 -1941
13.1702 50.5858 -8.6550 -1934
13.1807 50.5860 -8.6557 -1946
13.1997 50.6215 -8.6527 -1933
13.2074 50.6128 -8.6512 -1944
13.2082 50.5770 -8.6562 -1944
13.2212 50.5870 -8.6570 -1943
13.2289 50.5780 -8.6557 -1932
13.0527 50.6395 -8.6547 -1951
13.0802 50.6688 -8.6542 -1954
13.0939 50.6815 -8.6557 -1958
13.0579 50.7395 -8.6617 -1965
13.0592 50.7063 -8.6630 -1951
13.0942 50.7628 -8.6700 -1949
13.1234 50.6403 -8.6525 -1950
13.1442 50.6415 -8.6545 -1947
13.1639 50.6398 -8.6535 -1944
13.1857 50.6458 -8.6552 -1944
13.1982 50.6533 -8.6570 -1950
13.2237 50.6370 -8.6565 -1951
13.2407 50.6618 -8.6595 -1948
13.1324 50.7528 -8.6717 -1970
13.1282 50.7750 -8.6700 -1956
13.1869 50.7675 -8.6727 -1942
13.2184 50.8105 -8.6712 -1942
13.2387 50.7715 -8.6682 -1958
13.1657 50.8423 -8.6850 -1949
13.1222 50.9093 -8.6905 -1938
13.1457 50.9225 -8.6872 -1967
13.1639 50.9533 -8.6920 -1954
13.2022 50.9063 -8.6852 -1959
13.2229 50.9448 -8.6960 -1929
13.2309 50.8975 -8.6872 -1929
13.1217 50.9873 -8.6937 -1888
13.1239 50.9568 -8.6957 -1912
13.1414 50.9843 -8.6930 -1913
13.1472 50.9683 -8.6950 -1922
13.2064 50.9605 -8.6970 -1930
13.2454 50.9925 -8.7007 -1857
13.2717 50.0128 -8.6365 -1966
13.3124 50.0163 -8.6380 -2001
13.3349 50.0613 -8.6395 -1988
13.3379 50.0358 -8.6250 -1987
13.3289 50.0020 -8.6290 -1986
13.3387 50.0028 -8.6277 -1983
13.3532 50.0570 -8.6172 -1980
13.2649 50.1028 -8.6590 -1954
13.2754 50.1045 -8.6525 -1966
13.2777 50.0750 -8.6460 -1973
13.2997 50.0813 -8.6400 -2003
13.3209 50.1233 -8.6455 -2006
13.3502 50.0823 -8.6230 -1992
13.3662 50.1058 -8.6355 -1987
13.3717 50.1265 -8.6192 -1998
13.4039 50.0583 -8.6165 -1994
13.4049 50.0228 -8.6167 -1991
13.4282 50.0375 -8.6275 -1984
13.4299 50.0040 -8.6297 -1987
13.4384 50.0355 -8.6252 -1984
13.4397 50.0050 -8.6230 -1984
13.4487 50.0380 -8.6185 -1983
13.4532 50.0188 -8.6155 -1988
13.4299 50.0810 -8.6260 -1987
13.4422 50.0900 -8.6262 -1984
13.4607 50.1180 -8.6195 -1983
13.4502 50.0788 -8.6227 -1984
13.4584 50.0745 -8.6147 -1985
13.2764 50.1848 -8.6725 -1958
13.3257 50.2160 -8.6615 -1966
13.3534 50.2085 -8.6635 -1977
13.3917 50.1615 -8.6155 -2002
13.4129 50.1660 -8.6155 -1999
13.4364 50.1400 -8.6267 -1988
13.4549 50.1740 -8.6217 -1982
13.4447 50.1358 -8.6252 -1984
13.4569 50.1443 -8.6255 -1984
13.4634 50.1693 -8.6197 -1981
13.3732 50.2050 -8.6542 -1989
13.4364 50.2183 -8.6297 -1989
13.4497 50.2290 -8.6257 -1989
13.4434 50.2060 -8.6317 -1988
13.4519 50.1978 -8.6267 -1984
13.4594 50.2263 -8.6217 -1982
13.4617 50.1995 -8.6160 -1982
13.7244 50.0520 -8.6817 -2013
13.7404 50.0350 -8.6797 -1962
13.7522 50.1535 -8.6892 -1977
13.2609 50.3163 -8.6952 -1924
13.2749 50.2913 -8.6937 -1937
13.2854 50.2943 -8.6927 -1935
13.2912 50.2763 -8.6905 -1934
13.3179 50.3030 -8.6835 -1862
13.3304 50.3123 -8.6782 -1910
13.3572 50.2985 -8.6672 -1986
13.3692 50.3048 -8.6667 -1960
13.2472 50.3393 -8.6977 -1925
13.2642 50.3663 -8.7012 -1894
13.2804 50.3523 -8.6995 -1888
13.2954 50.3690 -8.6970 -1893
13.2989 50.3818 -8.6892 -1882
13.3059 50.3723 -8.6862 -1917
13.3017 50.3558 -8.6932 -1907
13.3084 50.3415 -8.6917 -1888
13.3114 50.3520 -8.6832 -1914
13.3162 50.3345 -8.6782 -1892
13.3142 50.3275 -8.6872 -1894
13.3282 50.3418 -8.6797 -1906
13.3454 50.3305 -8.6800 -1963
13.3232 50.3613 -8.6727 -1914
13.3582 50.3388 -8.6725 -1954
13.3854 50.2900 -8.6752 -1971
13.4062 50.2560 -8.6315 -1993
13.4322 50.3135 -8.6312 -1993
13.4322 50.2780 -8.6280 -1996
13.4527 50.3153 -8.6310 -1986
13.4539 50.2833 -8.6310 -1985
13.4649 50.2863 -8.6255 -1984
13.4697 50.2648 -8.6182 -1978
13.3904 50.3475 -8.6775 -1918
13.4294 50.3793 -8.6335 -1993
13.4202 50.3448 -8.6377 -1988
13.4294 50.3790 -8.6537 -1977
13.4267 50.3325 -8.6345 -1986
13.4397 50.3813 -8.6327 -1996
13.4432 50.3543 -8.6282 -1993
13.4474 50.3343 -8.6277 -1990
13.4639 50.3568 -8.6280 -1990
13.4634 50.3185 -8.6270 -1984
13.4744 50.3600 -8.6240 -1981
13.4779 50.3728 -8.6162 -1982
13.4747 50.3220 -8.6215 -1982
13.2522 50.4355 -8.7037 -1927
13.2507 50.3928 -8.6972 -1910
13.2597 50.3875 -8.6960 -1878
13.2732 50.4380 -8.6947 -1884
13.2814 50.4318 -8.6925 -1882
13.2742 50.4033 -8.6975 -1868
13.2807 50.3918 -8.6982 -1809
13.2802 50.3898 -8.6877 -1838
13.2884 50.4213 -8.6830 -1897
13.2974 50.4173 -8.6802 -1903
13.2899 50.3888 -8.6855 -1884
13.2887 50.3838 -8.6947 -1807
13.3069 50.4123 -8.6842 -1902
13.3202 50.4260 -8.6855 -1889
13.3207 50.3870 -8.6790 -1909
13.3479 50.4158 -8.6825 -1886
13.3639 50.4385 -8.6797 -1892
13.3592 50.4210 -8.6867 -1894
13.3659 50.4078 -8.6830 -1928
13.2549 50.4858 -8.6830 -1925
13.2529 50.4783 -8.6917 -1925
13.2477 50.4580 -8.6985 -1901
13.2594 50.4628 -8.6985 -1925
13.2619 50.4723 -8.6900 -1922
13.2669 50.4910 -8.6830 -1925
13.2737 50.4798 -8.6817 -1919
13.2714 50.4710 -8.6902 -1917
13.2667 50.4533 -8.6975 -1913
13.2812 50.4688 -8.6900 -1904
13.2834 50.4775 -8.6815 -1950
13.2907 50.4670 -8.6782 -1931
13.2867 50.4510 -8.6855 -1914
13.2964 50.4515 -8.6780 -1932
13.3082 50.4578 -8.6770 -1906
13.2472 50.4945 -8.6732 -1921
13.2489 50.5010 -8.6642 -1932
13.2589 50.5015 -8.6655 -1929
13.2557 50.4890 -8.6735 -1938
13.2662 50.4888 -8.6725 -1921
13.2684 50.4970 -8.6640 -1919
13.2707 50.5055 -8.6552 -1940
13.2812 50.5083 -8.6457 -1942
13.2799 50.5038 -8.6552 -1905
13.2767 50.4908 -8.6632 -1923
13.2759 50.4880 -8.6730 -1921
13.2882 50.4955 -8.6745 -1960
13.2882 50.4960 -8.6645 -1957
13.2902 50.5028 -8.6555 -1940
13.2989 50.4978 -8.6632 -1947
13.2947 50.4820 -8.6707 -1951
13.3047 50.4823 -8.6732 -1953
13.3082 50.4960 -8.6655 -1954
13.3077 50.4938 -8.6550 -1946
13.3164 50.4488 -8.6805 -1908
13.3267 50.4505 -8.6795 -1899
13.3387 50.4555 -8.6807 -1897
13.3457 50.4460 -8.6772 -1899
13.3579 50.4538 -8.6787 -1890
13.3094 50.5010 -8.6462 -1944
13.3209 50.5058 -8.6447 -1951
13.3182 50.4953 -8.6530 -1957
13.3147 50.4818 -8.6610 -1957
13.3159 50.4875 -8.6720 -1943
13.3232 50.4738 -8.6747 -1933
13.3267 50.4873 -8.6670 -1957
13.3287 50.4945 -8.6582 -1951
13.3282 50.4933 -8.6480 -1963
13.3314 50.5055 -8.6400 -1958
13.3399 50.5008 -8.6477 -1954
13.3392 50.4973 -8.6575 -1960
13.3367 50.4883 -8.6660 -1947
13.3357 50.4840 -8.6752 -1944
13.3439 50.4750 -8.6737 -1930
13.3487 50.4928 -8.6667 -1953
13.3507 50.5005 -8.6577 -1967
13.3572 50.4893 -8.6645 -1957
13.3529 50.4735 -8.6720 -1923
13.3647 50.4790 -8.6730 -1929
13.3687 50.4940 -8.6652 -1979
13.3719 50.5070 -8.6575 -1983
13.3692 50.4585 -8.6730 -1911
13.3757 50.4445 -8.6792 -1919
13.4112 50.4253 -8.6807 -1921
13.4214 50.4253 -8.6782 -1872
13.4109 50.3863 -8.6817 -1917
13.4262 50.4033 -8.6782 -1885
13.3772 50.4100 -8.6645 -1925
13.3747 50.4010 -8.6732 -1918
13.3812 50.3888 -8.6727 -1922
13.3892 50.4180 -8.6675 -1926
13.3962 50.4068 -8.6742 -1935
13.4232 50.4323 -8.6390 -1990
13.4207 50.4230 -8.6475 -1985
13.4364 50.4418 -8.6747 -1907
13.4224 50.3895 -8.6457 -1974
13.4232 50.3920 -8.6362 -1985
13.4357 50.4390 -8.6345 -1992
13.4434 50.4315 -8.6325 -1993
13.4382 50.4118 -8.6695 -1978
13.4514 50.4255 -8.6305 -1994
13.4554 50.4003 -8.6257 -1992
13.4622 50.3903 -8.6272 -1985
13.4704 50.4210 -8.6225 -1986
13.4827 50.4268 -8.6197 -1985
13.4729 50.3903 -8.6237 -1981
13.4209 50.4623 -8.6770 -1940
13.3804 50.5003 -8.6495 -1979
13.3779 50.4913 -8.6582 -1969
13.3749 50.4803 -8.6665 -1946
13.3837 50.4745 -8.6742 -1933
13.3869 50.4868 -8.6662 -1950
13.3894 50.4965 -8.6577 -1972
13.4009 50.4995 -8.6492 -1979
13.3962 50.4820 -8.6565 -1968
13.3912 50.4630 -8.6635 -1960
13.4047 50.4768 -8.6675 -1953
13.4089 50.4933 -8.6602 -1947
13.4112 50.5018 -8.6517 -1968
13.4224 50.5050 -8.6510 -1976
13.4187 50.4913 -8.6587 -1958
13.4154 50.4788 -8.6665 -1948
13.4144 50.4758 -8.6762 -1953
13.4249 50.4768 -8.6695 -1962
13.4254 50.4793 -8.6597 -1967
13.4239 50.4735 -8.6487 -1969
13.4277 50.4873 -8.6410 -1982
13.4334 50.5088 -8.6347 -1982
13.4322 50.4658 -8.6752 -1951
13.4377 50.4868 -8.6382 -1990
13.4374 50.4858 -8.6685 -1978
13.4444 50.4725 -8.6700 -1923
13.4507 50.4958 -8.6342 -1993
13.4539 50.4713 -8.6290 -1992
13.4594 50.4553 -8.6255 -1992
13.4724 50.5043 -8.6237 -1986
13.4774 50.4825 -8.6195 -1982
13.4689 50.4513 -8.6242 -1981
13.4807 50.4588 -8.6190 -1986
13.4899 50.4940 -8.6150 -1983
13.7504 50.4793 -8.6750 -1971
13.7922 50.0050 -8.6765 -1970
13.8322 50.0400 -8.6880 -1970
13.8552 50.0500 -8.6922 -1962
13.8684 50.0250 -8.6977 -1962
13.7549 50.1268 -8.6872 -1971
13.7897 50.1063 -8.6877 -1942
13.8317 50.1125 -8.6922 -1974
13.8384 50.1005 -8.6947 -1967
13.8574 50.0940 -8.6937 -1973
13.9692 50.0593 -8.7070 -1917
13.9654 50.0125 -8.7022 -1949
13.9869 50.0150 -8.7107 -1949
13.9147 50.0838 -8.7060 -1917
13.9317 50.1073 -8.7060 -1921
13.9577 50.1278 -8.7195 -1927
13.9667 50.0895 -8.7112 -1920
13.7927 50.1515 -8.6917 -1950
13.8097 50.1423 -8.6912 -1940
13.8239 50.1580 -8.6957 -1971
13.7689 50.2523 -8.7070 -1995
13.8012 50.2223 -8.7047 -1946
13.8472 50.2038 -8.7010 -1965
13.8972 50.1670 -8.7180 -1942
13.9314 50.1805 -8.7162 -1920
13.9524 50.1463 -8.7217 -1927
13.9757 50.1563 -8.7185 -1909
14.0024 50.1788 -8.7177 -1918
14.0072 50.1625 -8.7182 -1928
13.9292 50.2448 -8.7255 -1897
13.9307 50.2145 -8.7250 -1921
13.9562 50.2333 -8.7217 -1909
14.0024 50.2178 -8.7235 -1896
14.0307 50.0278 -8.7080 -1973
14.0794 50.0588 -8.7137 -1967
14.0222 50.1058 -8.7247 -1915
14.0452 50.1150 -8.7082 -1967
14.0534 50.0710 -8.7147 -1973
14.1067 50.1178 -8.7112 -1974
14.1104 50.0965 -8.7110 -1977
14.1209 50.0975 -8.7187 -1934
14.1309 50.0958 -8.7130 -1919
14.1339 50.0708 -8.7062 -1906
14.2047 50.0325 -8.7007 -1956
14.2222 50.0613 -8.7000 -1953
14.2614 50.0548 -8.7010 -1985
14.1579 50.1213 -8.7082 -1898
14.1589 50.1253 -8.6987 -1932
14.1657 50.1115 -8.7130 -1907
14.1742 50.1060 -8.7142 -1938
14.1767 50.0793 -8.7065 -1970
14.1924 50.0988 -8.7062 -1968
14.1984 50.0848 -8.7085 -1923
14.2159 50.1100 -8.7177 -1914
14.2439 50.1008 -8.7047 -1961
14.0134 50.1455 -8.7285 -1913
14.0352 50.1883 -8.7305 -1904
14.0432 50.1810 -8.7277 -1879
14.0559 50.1913 -8.7315 -1896
14.0964 50.1898 -8.7237 -1952
14.0897 50.1305 -8.7197 -1965
14.1139 50.1813 -8.7247 -1953
14.1319 50.1723 -8.7142 -1956
14.0257 50.2288 -8.7195 -1938
14.0304 50.2068 -8.7292 -1906
14.0499 50.2403 -8.7295 -1933
14.0549 50.2225 -8.7247 -1959
14.0654 50.2250 -8.7270 -1940
14.0787 50.2348 -8.7190 -1976
14.0779 50.1970 -8.7270 -1977
14.0922 50.2473 -8.7255 -1981
14.1002 50.2375 -8.7242 -1986
14.0924 50.2103 -8.7292 -1981
14.1059 50.2238 -8.7192 -1951
14.1099 50.2025 -8.7225 -1950
14.1342 50.2523 -8.7270 -1954
14.1339 50.2148 -8.7180 -1943
14.1367 50.1530 -8.7182 -1934
14.1467 50.1515 -8.7125 -1929
14.1662 50.1855 -8.6960 -1915
14.1534 50.1403 -8.6982 -1911
14.1502 50.1290 -8.7062 -1892
14.1664 50.1518 -8.6930 -1959
14.1707 50.1295 -8.6957 -1968
14.1719 50.1340 -8.7067 -1936
14.1862 50.1478 -8.7112 -1943
14.1899 50.1613 -8.7035 -1979
14.1944 50.1420 -8.7072 -1960
14.2009 50.1650 -8.7012 -1972
14.2037 50.1385 -8.7027 -1945
14.2362 50.1438 -8.7100 -1900
14.2492 50.1560 -8.7062 -1927
14.1412 50.2408 -8.7125 -1947
14.1439 50.2150 -8.7115 -1954
14.1534 50.2488 -8.7072 -1961
14.1609 50.2393 -8.7030 -1954
14.1619 50.2428 -8.7137 -1951
14.1512 50.2045 -8.7172 -1958
14.1637 50.2113 -8.7125 -1931
14.1689 50.2305 -8.7055 -1935
14.1822 50.2425 -8.6957 -1947
14.1934 50.2473 -8.6992 -1975
14.2014 50.2375 -8.7045 -1979
14.2214 50.2375 -8.7037 -1935
14.2224 50.2050 -8.7042 -1963
14.2414 50.2358 -8.7045 -1975
14.2427 50.2400 -8.7152 -1897
14.2332 50.2065 -8.7195 -1901
14.2432 50.2065 -8.7242 -1863
14.2487 50.2258 -8.7175 -1904
14.2519 50.1993 -8.7095 -1913
13.7902 50.2925 -8.7032 -1947
13.8072 50.3170 -8.7100 -1947
13.8032 50.2638 -8.7095 -1929
13.8189 50.2870 -8.7057 -1928
13.8312 50.2918 -8.7060 -1940
13.8307 50.2553 -8.7032 -1952
13.8464 50.2758 -8.7042 -1989
13.8569 50.2778 -8.7062 -1974
13.8717 50.2933 -8.7062 -1960
13.7912 50.3693 -8.7167 -1951
13.7949 50.3470 -8.7132 -1935
13.8037 50.3785 -8.7085 -1901
13.8079 50.3568 -8.7042 -1929
13.8189 50.3598 -8.7072 -1915
13.8197 50.3238 -8.7097 -1932
13.8404 50.3645 -8.7090 -1951
13.8719 50.3680 -8.7102 -1958
13.8817 50.2938 -8.7135 -1960
13.8914 50.2923 -8.7180 -1953
13.9089 50.3183 -8.7260 -1948
13.9097 50.2833 -8.7067 -1908
13.9159 50.3060 -8.7205 -1928
13.9119 50.2548 -8.7175 -1895
13.9147 50.2653 -8.7090 -1884
13.9267 50.3083 -8.7062 -1925
13.9314 50.2903 -8.7192 -1903
13.9237 50.2630 -8.7247 -1885
13.9377 50.2753 -8.7202 -1893
13.9442 50.2983 -8.7137 -1911
13.9557 50.3048 -8.7107 -1926
13.9489 50.2808 -8.7165 -1915
13.9462 50.2703 -8.7247 -1921
13.9537 50.2608 -8.7200 -1926
13.9629 50.2940 -8.7155 -1938
13.9674 50.3105 -8.7080 -1939
13.9714 50.2878 -8.7107 -1961
13.9687 50.2775 -8.7192 -1928
13.9764 50.2685 -8.7240 -1929
13.9832 50.2925 -8.7180 -1948
13.9842 50.2963 -8.7085 -1950
13.9984 50.3120 -8.7207 -1943
13.9974 50.3085 -8.7300 -1942
13.9934 50.2943 -8.7375 -1933
13.9947 50.2613 -8.7325 -1924
14.0049 50.2978 -8.7285 -1947
14.0052 50.2620 -8.7270 -1901
13.8889 50.3553 -8.7070 -1958
13.8999 50.3600 -8.7147 -1947
13.9082 50.3523 -8.7185 -1948
13.9177 50.3498 -8.7212 -1961
13.9247 50.3745 -8.7152 -1960
13.9229 50.3313 -8.7050 -1929
13.9427 50.3658 -8.7057 -1968
13.9394 50.3195 -8.7142 -1935
13.9504 50.3595 -8.7112 -1967
13.9602 50.3558 -8.7132 -1950
13.9764 50.3795 -8.7137 -1940
13.9792 50.3523 -8.7050 -1939
13.9862 50.3408 -8.7097 -1947
14.0012 50.3578 -8.7090 -1925
13.7614 50.4450 -8.6877 -1997
13.7694 50.4363 -8.6937 -1950
13.7774 50.4305 -8.6967 -1944
13.7892 50.4358 -8.7087 -1969
13.7869 50.3903 -8.7132 -1992
13.7964 50.4245 -8.7090 -1909
13.7982 50.4310 -8.7000 -1894
13.8119 50.4445 -8.6895 -1934
13.8057 50.4215 -8.6957 -1891
13.8034 50.4140 -8.7045 -1865
13.7997 50.4003 -8.7122 -1893
13.8107 50.4045 -8.7027 -1858
13.8159 50.4235 -8.6960 -1891
13.8152 50.3833 -8.6987 -1912
13.8262 50.4235 -8.6955 -1900
13.8302 50.4008 -8.7040 -1915
13.8389 50.4333 -8.6995 -1927
13.8492 50.4310 -8.7082 -1933
13.8412 50.4023 -8.7132 -1921
13.8597 50.4348 -8.7110 -1959
13.8699 50.4325 -8.7102 -1966
13.8562 50.3823 -8.7115 -1964
13.8687 50.3928 -8.7170 -1964
13.8764 50.4218 -8.7117 -1954
13.7544 50.4583 -8.6775 -2001
13.7664 50.4633 -8.6807 -1964
13.7757 50.4588 -8.6775 -1957
13.7722 50.4470 -8.6855 -1954
13.7827 50.4498 -8.6900 -1943
13.7884 50.4708 -8.6835 -1951
13.7957 50.4598 -8.6825 -1929
13.7954 50.4588 -8.6925 -1905
13.7939 50.4535 -8.7017 -1923
13.8027 50.4473 -8.6925 -1933
13.8047 50.4548 -8.6837 -1961
13.7582 50.5073 -8.6697 -1951
13.7649 50.4965 -8.6637 -1955
13.7584 50.4728 -8.6697 -1954
13.7687 50.4718 -8.6722 -1959
13.7782 50.5070 -8.6682 -1952
13.7817 50.4815 -8.6710 -1954
13.7884 50.4703 -8.6732 -1952
13.7974 50.5033 -8.6687 -1956
13.8042 50.4908 -8.6677 -1962
13.7994 50.4733 -8.6747 -1964
13.8092 50.4718 -8.6765 -1950
13.8184 50.4688 -8.6835 -1962
13.8259 50.4595 -8.6920 -1951
13.8302 50.4758 -8.6847 -1956
13.8384 50.4680 -8.6830 -1959
13.8322 50.4455 -8.6892 -1959
13.8477 50.4645 -8.6945 -1966
13.8467 50.4610 -8.6837 -1962
13.8529 50.4838 -8.6775 -1938
13.8669 50.4953 -8.6787 -1951
13.8582 50.4638 -8.6835 -1954
13.8572 50.4608 -8.6930 -1965
13.8567 50.4585 -8.7027 -1962
13.8654 50.4555 -8.7042 -1956
13.8659 50.4573 -8.6945 -1964
13.8669 50.4613 -8.6850 -1956
13.8739 50.4868 -8.6792 -1942
13.8782 50.4620 -8.6847 -1966
13.8764 50.4565 -8.6940 -1968
13.8752 50.4515 -8.7032 -1958
13.8204 50.4760 -8.6747 -1943
13.8299 50.4743 -8.6742 -1958
13.8419 50.4810 -8.6752 -1950
13.8864 50.4208 -8.7092 -1950
13.8862 50.3835 -8.7145 -1948
13.8914 50.4028 -8.7075 -1955
13.9109 50.4350 -8.7007 -1959
13.9007 50.3983 -8.7045 -1955
13.9102 50.3963 -8.7107 -1937
13.9207 50.4348 -8.7070 -1901
13.9337 50.4445 -8.7042 -1899
13.9312 50.4358 -8.7127 -1916
13.9202 50.3960 -8.7160 -1944
13.9419 50.4368 -8.7157 -1926
13.9412 50.3970 -8.7065 -1934
13.9527 50.4390 -8.7037 -1927
13.9559 50.4140 -8.7040 -1971
13.9697 50.4288 -8.7130 -1961
13.9849 50.4453 -8.7182 -1969
13.9942 50.4433 -8.7147 -1952
14.0019 50.4343 -8.7087 -1944
14.0067 50.4148 -8.7122 -1905
13.8844 50.4848 -8.6785 -1954
13.8854 50.4540 -8.7070 -1958
13.8869 50.4593 -8.6977 -1965
13.8909 50.4740 -8.6800 -1947
13.9059 50.4913 -8.6810 -1951
13.8979 50.4620 -8.6862 -1962
13.8957 50.4543 -8.6947 -1952
13.8959 50.4555 -8.7052 -1948
13.9037 50.4468 -8.7050 -1959
13.9074 50.4605 -8.6970 -1968
13.9067 50.4583 -8.6865 -1962
13.9149 50.4875 -8.6815 -1948
13.9277 50.4960 -8.6807 -1947
13.9212 50.4723 -8.6870 -1961
13.9204 50.4695 -8.6965 -1962
13.9249 50.4503 -8.6995 -1922
13.9294 50.4663 -8.6920 -1950
13.9324 50.4768 -8.6837 -1952
13.9412 50.4720 -8.6887 -1959
13.9392 50.4648 -8.6975 -1941
13.9482 50.4600 -8.7097 -1933
13.9474 50.4568 -8.6987 -1955
13.9499 50.4665 -8.6902 -1961
13.9597 50.5015 -8.6862 -1938
13.9682 50.4948 -8.6832 -1942
13.9599 50.4645 -8.6880 -1950
13.9592 50.4618 -8.6977 -1950
13.9687 50.4598 -8.7015 -1950
13.9689 50.4610 -8.6915 -1940
13.9774 50.4918 -8.6867 -1941
13.9807 50.4683 -8.6997 -1940
13.9772 50.4560 -8.7077 -1951
13.9882 50.4575 -8.7097 -1965
13.9907 50.4660 -8.7007 -1954
14.0019 50.4713 -8.6995 -1965
13.9949 50.4463 -8.7052 -1975
14.0092 50.3130 -8.7207 -1936
14.0154 50.2990 -8.7232 -1939
14.0209 50.2838 -8.7247 -1926
14.0254 50.3000 -8.7175 -1944
14.0362 50.2998 -8.7185 -1940
14.0289 50.2733 -8.7240 -1929
14.0614 50.3173 -8.7182 -1961
14.0599 50.3120 -8.7275 -1935
14.0617 50.3180 -8.7385 -1921
14.0669 50.3018 -8.7297 -1912
14.0689 50.3083 -8.7207 -1930
14.0694 50.3100 -8.7107 -1958
14.0684 50.2710 -8.7230 -1971
14.0759 50.2973 -8.7175 -1943
14.0777 50.2685 -8.7242 -1975
14.0839 50.2905 -8.7175 -1955
14.0957 50.2955 -8.7090 -1958
14.0867 50.2635 -8.7137 -1972
14.0967 50.2630 -8.7180 -1969
14.1079 50.3030 -8.7145 -1960
14.1097 50.2713 -8.7202 -1982
14.1274 50.3005 -8.7217 -1960
14.1307 50.2773 -8.7255 -1961
14.0082 50.3475 -8.7170 -1919
14.0164 50.3388 -8.7150 -1925
14.0297 50.3508 -8.7120 -1944
14.0214 50.3210 -8.7167 -1943
14.0389 50.3483 -8.7155 -1947
14.0449 50.3695 -8.7090 -1955
14.0514 50.3545 -8.7177 -1957
14.0509 50.3190 -8.7247 -1972
14.0607 50.3535 -8.7205 -1958
14.0774 50.3748 -8.7182 -1961
14.0827 50.3220 -8.7115 -1957
14.0949 50.3300 -8.7140 -1961
14.1082 50.3398 -8.7065 -1968
14.1254 50.3658 -8.7152 -1964
14.1257 50.3285 -8.7202 -1957
14.1494 50.2700 -8.7075 -1951
14.1637 50.2850 -8.7032 -1953
14.1787 50.3023 -8.7037 -1964
14.1802 50.2705 -8.7022 -1955
14.2174 50.2588 -8.7102 -1969
14.2379 50.2958 -8.7037 -1918
14.2374 50.2575 -8.7030 -1968
14.2462 50.2885 -8.6982 -1923
14.2522 50.3100 -8.6917 -1925
14.2554 50.2858 -8.6927 -1947
14.2529 50.2768 -8.7015 -1972
14.2599 50.2653 -8.7140 -1978
14.1369 50.3680 -8.7172 -1961
14.1412 50.3490 -8.7197 -1934
14.1477 50.3720 -8.7130 -1944
14.1592 50.3783 -8.7132 -1950
14.1509 50.3490 -8.7180 -1916
14.1472 50.3358 -8.7257 -1918
14.1564 50.3318 -8.7305 -1925
14.1634 50.3570 -8.7247 -1915
14.1792 50.3750 -8.7052 -1902
14.1699 50.3428 -8.7100 -1923
14.1812 50.3478 -8.7040 -1940
14.1977 50.3695 -8.7052 -1937
14.2052 50.3590 -8.7072 -1947
14.2109 50.3788 -8.7005 -1952
14.2152 50.3593 -8.6957 -1943
14.2047 50.3218 -8.6995 -1980
14.2162 50.3283 -8.7030 -1987
14.2222 50.3490 -8.6965 -1951
14.2337 50.3518 -8.6940 -1973
14.2322 50.3470 -8.7032 -1962
14.2267 50.3273 -8.7100 -1941
14.2344 50.3185 -8.7102 -1929
14.2374 50.3288 -8.7017 -1964
14.2492 50.3708 -8.6987 -1969
14.2457 50.3230 -8.6982 -1943
14.0129 50.3998 -8.7062 -1906
14.0317 50.4313 -8.7117 -1962
14.0209 50.3935 -8.7150 -1920
14.0417 50.4295 -8.7202 -1948
14.0459 50.4083 -8.7117 -1956
14.0607 50.4260 -8.7087 -1963
14.0622 50.3925 -8.7140 -1944
14.0749 50.4388 -8.7120 -1942
14.0757 50.4073 -8.7195 -1950
14.0849 50.4408 -8.7047 -1970
14.0949 50.4373 -8.7190 -1968
14.0944 50.3995 -8.7162 -1966
14.1162 50.4418 -8.7120 -1976
14.1102 50.4200 -8.7182 -1969
14.1219 50.4268 -8.7202 -1977
14.1334 50.4303 -8.7015 -1987
14.1337 50.4305 -8.7117 -1981
14.0122 50.5083 -8.6957 -1946
14.0087 50.4585 -8.7025 -1963
14.0167 50.4870 -8.6970 -1962
14.0239 50.4768 -8.7025 -1968
14.0187 50.4580 -8.7095 -1941
14.0279 50.4533 -8.7052 -1951
14.0312 50.4653 -8.6972 -1958
14.0454 50.4810 -8.7007 -1958
14.0392 50.4588 -8.7067 -1966
14.0484 50.4538 -8.7142 -1961
14.0507 50.4618 -8.7052 -1963
14.0652 50.4778 -8.7035 -1973
14.0577 50.4510 -8.7090 -1969
14.0677 50.4510 -8.7027 -1970
14.0777 50.4870 -8.6987 -1954
14.0864 50.4793 -8.6985 -1959
14.0807 50.4595 -8.7052 -1972
14.0874 50.4493 -8.7165 -1963
14.0934 50.4713 -8.6997 -1961
14.1072 50.4813 -8.7065 -1959
14.1002 50.4558 -8.7122 -1966
14.1077 50.4470 -8.7142 -1969
14.1114 50.4605 -8.7065 -1968
14.1199 50.4913 -8.7017 -1961
14.1347 50.5075 -8.7032 -1956
14.1232 50.4668 -8.7062 -1959
14.1277 50.4473 -8.7135 -1981
14.1327 50.4650 -8.7062 -1972
14.1469 50.4425 -8.7182 -1975
14.1457 50.4380 -8.7072 -1991
14.1514 50.4203 -8.7162 -1972
14.1594 50.4140 -8.7095 -1975
14.1679 50.4450 -8.7042 -1983
14.1729 50.4273 -8.7017 -1972
14.1719 50.4235 -8.7110 -1975
14.1704 50.3818 -8.7185 -1913
14.1799 50.4153 -8.7140 -1950
14.1872 50.4410 -8.7082 -1970
14.1982 50.4430 -8.6967 -1977
14.1882 50.4070 -8.7007 -1950
14.1929 50.3895 -8.7010 -1945
14.2074 50.4408 -8.6997 -1975
14.2109 50.4165 -8.7032 -1959
14.2237 50.4245 -8.6980 -1954
14.2302 50.4123 -8.6947 -1952
14.2394 50.4100 -8.6967 -1963
14.2489 50.4060 -8.6932 -1963
14.1439 50.5050 -8.7030 -1962
14.1437 50.4665 -8.6975 -1975
14.1492 50.4503 -8.6990 -1979
14.1637 50.5025 -8.6980 -1962
14.1729 50.4968 -8.6987 -1958
14.1597 50.4495 -8.7010 -1973
14.1592 50.4478 -8.7107 -1986
14.1759 50.4730 -8.6987 -1948
14.1874 50.4790 -8.7005 -1966
14.1967 50.4750 -8.7035 -1969
14.2072 50.4745 -8.6920 -1972
14.2164 50.4728 -8.6952 -1973
14.2242 50.4638 -8.7010 -1962
14.2339 50.4603 -8.6940 -1952
14.2544 50.4978 -8.6890 -1931
14.2434 50.4593 -8.6925 -1959
14.2507 50.4495 -8.6932 -1962
13.2559 50.5663 -8.6542 -1960
13.2534 50.5175 -8.6570 -1946
13.2672 50.5698 -8.6560 -1975
13.2739 50.5585 -8.6550 -1962
13.2634 50.5183 -8.6582 -1948
13.2784 50.5350 -8.6502 -1955
13.2842 50.5565 -8.6440 -1946
13.2904 50.5438 -8.6415 -1958
13.2932 50.5143 -8.6475 -1942
13.2979 50.5323 -8.6405 -1954
13.3072 50.5293 -8.6380 -1965
13.3027 50.5120 -8.6452 -1939
13.3019 50.5095 -8.6550 -1947
13.3127 50.5128 -8.6382 -1951
13.3192 50.5380 -8.6325 -1979
13.3279 50.5323 -8.6290 -1997
13.3227 50.5128 -8.6357 -1962
13.3347 50.5180 -8.6322 -1989
13.3529 50.5498 -8.6360 -1985
13.3424 50.5098 -8.6392 -1969
13.3552 50.5183 -8.6507 -1960
13.3637 50.5503 -8.6460 -1978
13.3689 50.5700 -8.6392 -1975
13.3644 50.5175 -8.6285 -1971
13.3674 50.5285 -8.6407 -1971
13.3672 50.5280 -8.6507 -1961
13.3657 50.5215 -8.6597 -1962
13.2509 50.6228 -8.6547 -1944
13.2587 50.6153 -8.6527 -1962
13.2834 50.6325 -8.6567 -1973
13.2924 50.6285 -8.6467 -1920
13.2842 50.5973 -8.6515 -1957
13.2939 50.5943 -8.6402 -1961
13.3022 50.5878 -8.6390 -1951
13.3097 50.5768 -8.6380 -1969
13.3204 50.5798 -8.6365 -1977
13.3294 50.5763 -8.6290 -2008
13.3687 50.6095 -8.6362 -1980
13.3764 50.5623 -8.6260 -1962
13.3772 50.5260 -8.6505 -1975
13.3767 50.5245 -8.6402 -1980
13.3749 50.5175 -8.6290 -1968
13.3747 50.5168 -8.6187 -1942
13.3919 50.5440 -8.6265 -1967
13.3927 50.5465 -8.6370 -1982
13.3869 50.5250 -8.6435 -1978
13.3927 50.5090 -8.6497 -1979
13.3962 50.5215 -8.6420 -1980
13.4044 50.5530 -8.6372 -1980
13.4044 50.5530 -8.6270 -1965
13.4159 50.5555 -8.6282 -1980
13.4144 50.5503 -8.6375 -1986
13.4072 50.5235 -8.6432 -1976
13.4174 50.5253 -8.6457 -1973
13.4149 50.5155 -8.6340 -1987
13.4274 50.5620 -8.6320 -1984
13.4177 50.5258 -8.6157 -1968
13.4317 50.5405 -8.6262 -1986
13.4304 50.5355 -8.6357 -1982
13.4254 50.5168 -8.6427 -1972
13.4429 50.5445 -8.6310 -1989
13.4409 50.5375 -8.6197 -1993
13.4532 50.5450 -8.6380 -1990
13.4564 50.5170 -8.6277 -1993
13.4702 50.5688 -8.6267 -1992
13.4774 50.5593 -8.6235 -1989
13.4652 50.5135 -8.6260 -1987
13.4849 50.5508 -8.6217 -1982
13.4852 50.5118 -8.6142 -1983
13.3817 50.6185 -8.6375 -1962
13.4697 50.6065 -8.6280 -1991
13.4614 50.5758 -8.6330 -1993
13.2487 50.6535 -8.6585 -1936
13.2747 50.6383 -8.6565 -1976
13.3197 50.6925 -8.6470 -1970
13.3207 50.6585 -8.6407 -1979
13.3369 50.6423 -8.6367 -2001
13.3712 50.6960 -8.6465 -2002
13.3664 50.6378 -8.6425 -1998
13.3059 50.7175 -8.6612 -1955
13.3419 50.7000 -8.6487 -1976
13.7507 50.5565 -8.6677 -1972
13.7519 50.5230 -8.6707 -1958
13.2594 50.8120 -8.6750 -1944
13.2942 50.7885 -8.6727 -1937
13.3422 50.8183 -8.6687 -1957
13.2812 50.8573 -8.6840 -1928
13.3079 50.8793 -8.6870 -1926
13.3139 50.8268 -8.6787 -1963
13.3299 50.8490 -8.6822 -1940
13.2499 50.8928 -8.6872 -1931
13.2632 50.9028 -8.6892 -1950
13.3132 50.9385 -8.6965 -1880
13.3572 50.9530 -8.6897 -1937
13.3529 50.8970 -8.6817 -1953
13.2829 50.9780 -8.6920 -1902
13.2899 50.9680 -8.6915 -1909
13.3069 50.9940 -8.6957 -1827
13.3149 50.9865 -8.6960 -1871
13.3262 50.9885 -8.6947 -1846
13.3352 50.9838 -8.6947 -1865
13.3402 50.9643 -8.6925 -1935
13.3504 50.9658 -8.6922 -1943
13.7844 50.5678 -8.6657 -1962
13.7934 50.5630 -8.6677 -1968
13.7937 50.5253 -8.6685 -1959
13.8234 50.5605 -8.6695 -1967
13.8194 50.5090 -8.6727 -1954
13.8347 50.5275 -8.6732 -1944
13.8454 50.5313 -8.6740 -1961
13.8554 50.5303 -8.6735 -1947
13.8662 50.5320 -8.6757 -1942
13.7582 50.6198 -8.6745 -2007
13.7682 50.5825 -8.6707 -1954
13.7764 50.5745 -8.6712 -1956
13.8174 50.5763 -8.6712 -1967
13.8634 50.6328 -8.6812 -1948
13.8714 50.6263 -8.6802 -1944
13.8379 50.5768 -8.6742 -1959
13.8849 50.5615 -8.6800 -1959
13.8889 50.5410 -8.6785 -1954
13.9069 50.5323 -8.6800 -1944
13.9212 50.5473 -8.6805 -1962
13.9307 50.5448 -8.6812 -1966
13.8974 50.5323 -8.6765 -1956
13.9457 50.5605 -8.6817 -1958
13.9452 50.5235 -8.6815 -1949
13.9527 50.5135 -8.6857 -1947
13.9819 50.5443 -8.6815 -1944
13.9917 50.5428 -8.6852 -1940
13.9919 50.5093 -8.6967 -1949
14.0032 50.5115 -8.6982 -1952
13.8842 50.6350 -8.6812 -1944
13.9279 50.6085 -8.6830 -1942
13.9429 50.6260 -8.6837 -1958
13.9549 50.6325 -8.6860 -1957
13.9744 50.6295 -8.6897 -1962
13.9804 50.6145 -8.6927 -1959
13.9814 50.5800 -8.6895 -1946
13.7777 50.6558 -8.6745 -1965
13.8249 50.6395 -8.6777 -1962
13.8174 50.7248 -8.6870 -1960
13.8777 50.7590 -8.6932 -1925
13.9004 50.6565 -8.6867 -1956
13.9279 50.6833 -8.6927 -1948
13.9309 50.6540 -8.6872 -1955
13.9729 50.6603 -8.6887 -1946
13.9384 50.7560 -8.7032 -1944
13.9684 50.7550 -8.6980 -1933
14.0309 50.5385 -8.6957 -1945
14.0352 50.5168 -8.6992 -1941
14.0444 50.5130 -8.6952 -1954
14.0624 50.5418 -8.7015 -1958
14.0644 50.5110 -8.7032 -1954
14.0787 50.5263 -8.7017 -1958
14.0922 50.5398 -8.6977 -1956
14.0977 50.5200 -8.6952 -1962
14.1059 50.5153 -8.6972 -1959
14.1232 50.5385 -8.7065 -1960
14.0157 50.6295 -8.6902 -1965
14.0097 50.5730 -8.6977 -1960
14.0302 50.6083 -8.7045 -1952
14.0382 50.6020 -8.7020 -1944
14.0574 50.5975 -8.7030 -1942
14.0682 50.5983 -8.6997 -1952
14.0859 50.6268 -8.7062 -1954
14.0899 50.6025 -8.7087 -1942
14.1407 50.5650 -8.7042 -1963
14.1592 50.5213 -8.6967 -1962
14.1832 50.5718 -8.6997 -1957
14.1934 50.5700 -8.7010 -1967
14.1932 50.5348 -8.6987 -1966
14.2047 50.5405 -8.7012 -1963
14.2144 50.5378 -8.7040 -1960
14.2269 50.5445 -8.6937 -1953
14.2319 50.5275 -8.6947 -1950
14.2384 50.5140 -8.6995 -1950
14.2492 50.5150 -8.6932 -1948
14.1672 50.6238 -8.7130 -1957
14.1804 50.6355 -8.7152 -1952
14.2609 50.6308 -8.7022 -1946
14.2582 50.5845 -8.7012 -1962
14.0184 50.6763 -8.6940 -1956
14.0627 50.6533 -8.7050 -1935
14.1099 50.6380 -8.7107 -1943
14.0452 50.7013 -8.7097 -1960
14.0714 50.7220 -8.7125 -1939
14.0889 50.7473 -8.7110 -1959
14.0952 50.7333 -8.7162 -1921
14.1004 50.7140 -8.7095 -1912
14.1129 50.7243 -8.7130 -1919
14.1202 50.7110 -8.7170 -1916
14.1367 50.6590 -8.7090 -1977
14.1399 50.6375 -8.7080 -1976
14.1557 50.6543 -8.7162 -1983
14.1952 50.6505 -8.7085 -1942
14.2287 50.6613 -8.7100 -1975
14.2432 50.6770 -8.7145 -1943
14.2547 50.6810 -8.7182 -1949
14.2567 50.6505 -8.7017 -1945
14.1394 50.7445 -8.7190 -1933
14.1382 50.7040 -8.7157 -1957
14.1849 50.7233 -8.7215 -1967
14.2029 50.7515 -8.7247 -1915
14.2079 50.7338 -8.7220 -1919
14.2099 50.7405 -8.7130 -1940
14.2259 50.7603 -8.7070 -1964
14.2204 50.7403 -8.7137 -1936
14.2207 50.7053 -8.7127 -1961
14.2399 50.7353 -8.7190 -1963
13.8037 50.7878 -8.6930 -1954
13.8192 50.7695 -8.6925 -1943
13.8434 50.7845 -8.6925 -1969
13.8507 50.7723 -8.6935 -1966
13.8699 50.7690 -8.6940 -1944
13.8802 50.8805 -8.7020 -1913
13.8937 50.7803 -8.6990 -1911
13.9124 50.8115 -8.7015 -1918
13.9197 50.8020 -8.7002 -1912
13.9354 50.8215 -8.7030 -1899
13.9732 50.8078 -8.7032 -1929
13.9872 50.7863 -8.7010 -1943
13.9989 50.7928 -8.7035 -1953
13.8844 50.8578 -8.7050 -1933
13.9119 50.8848 -8.7045 -1927
13.9524 50.8838 -8.7035 -1909
13.9534 50.8500 -8.7097 -1909
13.9607 50.8760 -8.7042 -1917
13.9617 50.8798 -8.6947 -1927
13.9679 50.8638 -8.7012 -1937
13.9662 50.8575 -8.7102 -1895
13.9699 50.8363 -8.7090 -1933
13.9769 50.8618 -8.7032 -1951
13.9782 50.8655 -8.6937 -1957
13.9877 50.8605 -8.7020 -1943
13.9897 50.8330 -8.7012 -1933
13.8284 50.9175 -8.7135 -1937
13.8457 50.9418 -8.7092 -1927
13.8429 50.8958 -8.7055 -1929
13.8562 50.9450 -8.7037 -1952
13.8602 50.9210 -8.7082 -1967
13.8667 50.9063 -8.7077 -1961
13.8234 51.0110 -8.7060 -1962
13.8254 50.9795 -8.7137 -1996
13.8342 51.0120 -8.7092 -1917
13.8344 50.9775 -8.7147 -1907
13.8347 50.9778 -8.7250 -1988
13.8442 50.9753 -8.7132 -1897
13.8554 51.0168 -8.7102 -1941
13.8607 50.9973 -8.7082 -1947
13.8707 50.9983 -8.7025 -1954
13.8694 50.9550 -8.7037 -1967
13.8879 50.9480 -8.7102 -1952
13.8987 50.9483 -8.7035 -1957
13.9049 50.9328 -8.7075 -1930
13.9062 50.9013 -8.7065 -1941
13.9334 50.9253 -8.7137 -1930
13.9539 50.9268 -8.7115 -1945
13.9642 50.9268 -8.7005 -1921
13.9787 50.9023 -8.6975 -1938
14.0022 50.9130 -8.7007 -1958
13.8842 50.9695 -8.7085 -1972
13.8944 51.0080 -8.7050 -1964
13.8937 50.9690 -8.7032 -1972
13.9212 50.9565 -8.7060 -1921
13.9414 50.9923 -8.7127 -1923
13.9582 50.9790 -8.7200 -1948
13.9827 50.9560 -8.6975 -1945
14.0027 50.9898 -8.7020 -1925
14.0059 50.9670 -8.7010 -1958
14.0094 50.7918 -8.7010 -1933
14.0182 50.7880 -8.7067 -1926
14.0322 50.8015 -8.7147 -1912
14.0364 50.7790 -8.7135 -1929
14.0494 50.8258 -8.7115 -1922
14.0582 50.8198 -8.7082 -1930
14.0632 50.8010 -8.7095 -1930
14.0759 50.7735 -8.7222 -1949
14.0994 50.8228 -8.7197 -1929
14.1242 50.7995 -8.7137 -1923
14.1327 50.7948 -8.7152 -1922
14.0092 50.8665 -8.7045 -1946
14.0197 50.8675 -8.7060 -1953
14.0282 50.8600 -8.7022 -1948
14.0302 50.8315 -8.7040 -1930
14.0399 50.8663 -8.6997 -1946
14.0484 50.8600 -8.7042 -1921
14.0404 50.8310 -8.7095 -1917
14.0552 50.8473 -8.7050 -1929
14.0767 50.8868 -8.7095 -1926
14.0837 50.8758 -8.7122 -1851
14.0914 50.8680 -8.7182 -1893
14.0814 50.8318 -8.7222 -1907
14.0942 50.8395 -8.7232 -1915
14.1039 50.8740 -8.7187 -1919
14.1107 50.8630 -8.7165 -1900
14.1127 50.8335 -8.7155 -1923
14.1309 50.8620 -8.7180 -1930
14.1227 50.8325 -8.7230 -1912
14.1369 50.7718 -8.7172 -1939
14.1614 50.8235 -8.7222 -1964
14.1689 50.8148 -8.7247 -1961
14.1737 50.7918 -8.7215 -1961
14.1807 50.7830 -8.7230 -1978
14.1909 50.7805 -8.7280 -1974
14.1997 50.8115 -8.7232 -1964
14.2024 50.7860 -8.7222 -1971
14.2062 50.7995 -8.7147 -1964
14.2187 50.8073 -8.7140 -1977
14.2102 50.7773 -8.7190 -1950
14.2174 50.7675 -8.7075 -1971
14.2384 50.7688 -8.7135 -1967
14.2424 50.7830 -8.7060 -1970
14.2519 50.7780 -8.7157 -1967
14.1587 50.8493 -8.7202 -1941
14.1797 50.8888 -8.7130 -1931
14.1679 50.8468 -8.7162 -1967
14.1809 50.8575 -8.7217 -1961
14.1862 50.8768 -8.7150 -1957
14.1977 50.8778 -8.7155 -1934
14.1892 50.8473 -8.7205 -1914
14.1947 50.8338 -8.7215 -1907
14.2044 50.8688 -8.7172 -1911
14.2102 50.8495 -8.7197 -1910
14.2227 50.8580 -8.7147 -1931
14.2377 50.8755 -8.7155 -1958
14.2477 50.8753 -8.7160 -1967
14.2519 50.8530 -8.7125 -1964
14.0082 50.8995 -8.7025 -1947
14.0242 50.9205 -8.7035 -1943
14.0264 50.8920 -8.7002 -1947
14.0369 50.8915 -8.6975 -1951
14.0557 50.9235 -8.6995 -1945
14.0687 50.9333 -8.7062 -1930
14.0709 50.9040 -8.7045 -1938
14.0932 50.9460 -8.7092 -1930
14.0909 50.9013 -8.7067 -1875
14.0994 50.8975 -8.7132 -1877
14.1199 50.9318 -8.7185 -1918
14.1299 50.9325 -8.7180 -1911
14.1339 50.9095 -8.7180 -1920
14.0177 51.0100 -8.6982 -1958
14.0237 50.9915 -8.7037 -1906
14.0324 50.9880 -8.7075 -1917
14.0387 51.0108 -8.7012 -1958
14.0467 51.0028 -8.7072 -1925
14.0512 50.9818 -8.7052 -1923
14.0692 51.0090 -8.6970 -1915
14.0594 50.9730 -8.7010 -1880
14.0742 50.9908 -8.7007 -1929
14.0802 50.9755 -8.7032 -1945
14.0882 50.9663 -8.7050 -1947
14.1049 50.9883 -8.7060 -1925
14.1074 50.9608 -8.7067 -1921
14.1114 50.9758 -8.6995 -1928
14.1314 51.0125 -8.7027 -1939
14.1254 50.9908 -8.7090 -1949
14.1174 50.9623 -8.7142 -1927
14.1334 50.9810 -8.7167 -1940
14.1559 50.9515 -8.7232 -1901
14.1584 50.9225 -8.7247 -1923
14.1617 50.8988 -8.7232 -1919
14.1754 50.9093 -8.7202 -1904
14.1862 50.9480 -8.7167 -1928
14.1919 50.8973 -8.7082 -1955
14.2037 50.9390 -8.7052 -1931
14.2049 50.9038 -8.7095 -1951
14.2187 50.9198 -8.7157 -1937
14.2229 50.8953 -8.7175 -1934
14.2339 50.8983 -8.7117 -1948
14.1417 51.0100 -8.7115 -1942
14.1477 50.9963 -8.7085 -1944
14.1452 50.9880 -8.7172 -1951
14.1542 50.9828 -8.7205 -1925
14.1572 50.9940 -8.7120 -1941
14.1619 51.0103 -8.7047 -1949
14.1689 50.9983 -8.7110 -1945
14.1662 50.9883 -8.7195 -1918
14.1694 50.9625 -8.7212 -1896
14.1704 50.9660 -8.7115 -1938
14.1842 51.0150 -8.7097 -1956
14.1884 50.9950 -8.7095 -1941
14.1799 50.9648 -8.7145 -1937
14.1779 50.9575 -8.7232 -1914
14.1962 50.9838 -8.7125 -1944
14.2072 50.9875 -8.7095 -1935
14.1989 50.9575 -8.7147 -1923
14.2209 51.0010 -8.7057 -1951
14.2207 50.9603 -8.7090 -1964
14.2297 50.9590 -8.7125 -1976
14.2439 51.0100 -8.7110 -1975
14.2557 51.0128 -8.7172 -1963
14.2439 50.9708 -8.7202 -1937
14.2567 50.9800 -8.7157 -1955
13.2039 51.0675 -8.7095 -1892
13.2102 51.0538 -8.7130 -1881
13.2192 51.0485 -8.7100 -1850
13.8159 51.0233 -8.7007 -1935
13.8239 51.0528 -8.7157 -2015
13.8432 51.0453 -8.7047 -1923
13.8529 51.0455 -8.7055 -1937
13.8472 51.0235 -8.7120 -1923
13.8634 51.0465 -8.7052 -1938
13.8717 51.0378 -8.7050 -1947
13.8867 51.0180 -8.7040 -1948
13.9087 51.0238 -8.7022 -1965
13.9209 51.0295 -8.7072 -1941
13.9369 51.0498 -8.7067 -1911
13.9297 51.0235 -8.7127 -1907
13.9404 51.0273 -8.7077 -1918
13.9547 51.0405 -8.7105 -1925
13.9652 51.0410 -8.7232 -1920
13.9657 51.0428 -8.7135 -1931
13.9652 51.0413 -8.7030 -1944
13.9764 51.0450 -8.7105 -1945
13.9744 51.0378 -8.7197 -1925
13.9809 51.0253 -8.7182 -1949
13.9839 51.0360 -8.7100 -1951
13.9894 51.0183 -8.7060 -1954
14.0554 51.0340 -8.7025 -1944
14.0627 51.0238 -8.7025 -1938
14.0959 51.0323 -8.7027 -1946
14.1027 51.0188 -8.7037 -1954
14.1147 51.0243 -8.7015 -1958
14.1484 51.0348 -8.7055 -1952
14.1559 51.0260 -8.7032 -1949
14.1764 51.0253 -8.7057 -1958
14.1929 51.0468 -8.7047 -1972
14.1997 51.0353 -8.7062 -1965
14.2087 51.0290 -8.7102 -1968
14.2174 51.0243 -8.7057 -1965
14.2299 51.0338 -8.7010 -1969
14.2434 51.0420 -8.7022 -1959
14.2367 51.0180 -8.7085 -1965
14.2497 51.0305 -8.7042 -1975
13.3612 50.0115 -8.5922 -1996
13.3872 50.0335 -8.6080 -1988
13.4647 50.0613 -8.5625 -1987
13.4589 50.0395 -8.5690 -1988
13.4607 50.0460 -8.5800 -1988
13.4569 50.0325 -8.5877 -1988
13.4604 50.0450 -8.6000 -1991
13.4554 50.0265 -8.6067 -1986
13.4569 50.0323 -8.5475 -1987
13.4612 50.1203 -8.5997 -1987
13.4589 50.0765 -8.6050 -1988
13.4602 50.0808 -8.5957 -1987
13.4607 50.0830 -8.5862 -1988
13.4637 50.0940 -8.5780 -1990
13.4632 50.0920 -8.5677 -1987
13.4614 50.0853 -8.5567 -1991
13.4629 50.0913 -8.5477 -1992
13.4639 50.1703 -8.6100 -1981
13.4647 50.1735 -8.6005 -1985
13.4684 50.1873 -8.5927 -1985
13.4692 50.1900 -8.5630 -1988
13.4652 50.1345 -8.5520 -1982
13.4674 50.1433 -8.5635 -1988
13.4677 50.1448 -8.5740 -1988
13.4679 50.1450 -8.5840 -1984
13.4672 50.1428 -8.5937 -1987
13.4634 50.1280 -8.6112 -1985
13.4759 50.2530 -8.5747 -1984
13.4732 50.2428 -8.5830 -1984
13.4709 50.2335 -8.5917 -1984
13.4737 50.2443 -8.6035 -1982
13.4707 50.2328 -8.6117 -1985
13.4707 50.1963 -8.5842 -1981
13.4722 50.2010 -8.5750 -1984
13.4757 50.2865 -8.6120 -1982
13.4772 50.2925 -8.6030 -1982
13.4767 50.2908 -8.5927 -1982
13.4787 50.2980 -8.5840 -1986
13.4804 50.3435 -8.5850 -1981
13.4797 50.3413 -8.5945 -1985
13.4837 50.3563 -8.6072 -1982
13.4767 50.3300 -8.6130 -1978
13.4832 50.4285 -8.6097 -1983
13.4832 50.3923 -8.6095 -1984
13.4824 50.3898 -8.5990 -1984
13.4879 50.4465 -8.6027 -1985
14.3012 50.0538 -8.7027 -1932
14.3432 50.0583 -8.7030 -1952
14.2862 50.1063 -8.7057 -1982
14.2917 50.0903 -8.7095 -1943
14.2999 50.0843 -8.7032 -1954
